# .PCD v0.7 - Point Cloud Data file format
VERSION 0.7
FIELDS x y z
SIZE 4 4 4
TYPE F F F
COUNT 1 1 1
WIDTH 1438
HEIGHT 1
VIEWPOINT 0 0 0 1 0 0 0
POINTS 1438
DATA ascii
-0.14300486 -0.19492209 0.93700016
-0.17326859 -0.18776406 0.93681836
-0.1634742 -0.18651615 0.93700022
-0.15484031 -0.18580392 0.93687898
-0.1451256 -0.18769121 0.93700016
-0.16109842 -0.17981187 0.93700004
-0.15703028 -0.17940506 0.93700004
-0.15283708 -0.23131359 0.94800013
-0.14734922 -0.23131359 0.94800007
-0.16340205 -0.22248586 0.94707692
-0.15382513 -0.22408013 0.94691992
-0.1445919 -0.22480637 0.94534272
-0.13505884 -0.2235034 0.94599992
-0.12479653 -0.2226591 0.94760001
-0.1193611 -0.2222586 0.94800007
-0.18027642 -0.21155727 0.94800007
-0.17433031 -0.21273625 0.94775003
-0.16444942 -0.21544375 0.94631243
-0.1550601 -0.21471156 0.94196421
-0.14454718 -0.21619268 0.94145465
-0.13482626 -0.21463226 0.94369233
-0.1247274 -0.21499068 0.94499981
-0.11516872 -0.21511319 0.94658816
-0.1085683 -0.21393535 0.94800007
-0.18346737 -0.20329033 0.94564289
-0.17523324 -0.20530678 0.9428786
-0.16563663 -0.20639396 0.94245005
-0.15490846 -0.20593162 0.94016695
-0.14733012 -0.20201775 0.94000006
-0.1347615 -0.2050101 0.94121039
-0.12470467 -0.20510811 0.94483322
-0.11476368 -0.20494246 0.94547361
-0.1065195 -0.20436817 0.94800001
-0.18441811 -0.19486761 0.94292319
-0.17549014 -0.19671226 0.9400003
-0.1689603 -0.19997717 0.94000006
-0.15181941 -0.19997717 0.94000006
-0.14784704 -0.19638577 0.9400003
-0.13503888 -0.19514282 0.94131935
-0.12472738 -0.19529685 0.94499981
-0.11541575 -0.19479875 0.94657886
-0.10693856 -0.19703935 0.94800001
-0.18414851 -0.18521437 0.94455159
-0.17502579 -0.1838403 0.94157135
-0.16683164 -0.18294209 0.94026679
-0.15236355 -0.18147588 0.94000006
-0.14470018 -0.18279618 0.94064027
-0.13504148 -0.18536906 0.94451225
-0.12495305 -0.1849604 0.94671428
-0.11785194 -0.1856271 0.94800001
-0.18213692 -0.17637624 0.94739997
-0.1752082 -0.17529239 0.94408333
-0.1649783 -0.17496696 0.94228953
-0.1550388 -0.17487539 0.94362146
-0.14508262 -0.17513067 0.9442327
-0.13484262 -0.17671503 0.94748271
-0.12561728 -0.177313 0.94800007
-0.11881232 -0.17643492 0.94800013
-0.17231946 -0.16861711 0.94725001
-0.16547805 -0.16855489 0.94574988
-0.1527866 -0.16922639 0.94671434
-0.14453019 -0.16893643 0.94749999
-0.10731037 -0.24040851 0.95800006
-0.16270943 -0.23296455 0.95671433
-0.15662563 -0.23131174 0.95099998
-0.14172705 -0.23245458 0.95266676
-0.13453244 -0.2341743 0.95687515
-0.12566674 -0.23369157 0.95694125
-0.11334407 -0.23455152 0.95786375
-0.10682104 -0.2344387 0.95800006
-0.18134621 -0.22127566 0.95800006
-0.17401011 -0.2230715 0.95499998
-0.16531426 -0.22648004 0.95190001
-0.15755908 -0.227677 0.94999999
-0.13405041 -0.22846748 0.95100003
-0.12571113 -0.22804376 0.95324999
-0.11466594 -0.22545961 0.9530313
-0.10459915 -0.22447835 0.95306051
-0.096139908 -0.22333638 0.95613343
-0.19132859 -0.21046142 0.95800006
-0.18420334 -0.21405242 0.95492858
-0.17521188 -0.21697125 0.95127785
-0.16745809 -0.21612817 0.95000005
-0.10330899 -0.21509896 0.95080006
-0.094683513 -0.21526416 0.95455879
-0.089009382 -0.21129328 0.95800006
-0.19247583 -0.20465122 0.95588899
-0.18770532 -0.20664889 0.95227265
-0.10232119 -0.2061301 0.95029992
-0.09500818 -0.20506224 0.95270741
-0.088343896 -0.20397289 0.95800006
-0.19227225 -0.19558172 0.95441669
-0.11218867 -0.19055575 0.95000005
-0.10492267 -0.1935076 0.95024019
-0.095045775 -0.19516881 0.95304692
-0.087985553 -0.19472 0.95800012
-0.19222534 -0.18557867 0.95625007
-0.18881458 -0.1828658 0.95120013
-0.1141822 -0.18416263 0.95000011
-0.1049941 -0.18495911 0.95214301
-0.094897069 -0.1853198 0.95643932
-0.088343889 -0.187502 0.95800006
-0.19049671 -0.17885062 0.95800006
-0.18574893 -0.17442048 0.95294744
-0.17900692 -0.17075776 0.95000005
-0.15920892 -0.17075776 0.95000005
-0.14106075 -0.1724076 0.95000005
-0.13563079 -0.17181003 0.95049995
-0.12524761 -0.17404558 0.95196319
-0.11459701 -0.17510101 0.95325011
-0.10514192 -0.17611034 0.95538706
-0.097328007 -0.17885061 0.958
-0.18201466 -0.16873923 0.95540011
-0.17494747 -0.1657173 0.9535715
-0.16439141 -0.16512853 0.95492595
-0.15467517 -0.16491839 0.95442426
-0.14466858 -0.16432473 0.95410806
-0.13488284 -0.16578825 0.95479494
-0.12516233 -0.16835344 0.95657903
-0.11793964 -0.16943312 0.95650005
-0.15056726 -0.1588859 0.95800006
-0.14640796 -0.1588859 0.95800006
-0.13808933 -0.1588859 0.95800006
-0.17106602 -0.23114774 0.96100003
-0.16762732 -0.23438063 0.96329993
-0.13434941 -0.23782349 0.96100003
-0.12155423 -0.23559822 0.96100003
-0.1180435 -0.23525147 0.96140003
-0.10305301 -0.23544273 0.9649232
-0.096940733 -0.23171042 0.96799999
-0.084217995 -0.232613 0.96899992
-0.077241898 -0.23239884 0.96899998
-0.18425687 -0.22432697 0.96539992
-0.17616531 -0.22667581 0.96150005
-0.16856261 -0.22947879 0.96100003
-0.09262535 -0.22686203 0.96453339
-0.085093588 -0.22510105 0.96716106
-0.075569317 -0.22503641 0.96699989
-0.065543339 -0.22454181 0.96899992
-0.058516588 -0.22419886 0.96899992
-0.19371414 -0.21415576 0.96490002
-0.1876726 -0.21746658 0.96200007
-0.085073046 -0.21519321 0.96430296
-0.075530246 -0.2148452 0.96649975
-0.065604873 -0.21573375 0.96899992
-0.055533394 -0.21540222 0.9690001
-0.049643487 -0.21371941 0.96900004
-0.19734395 -0.20501049 0.96366668
-0.084059805 -0.20535141 0.9646399
-0.075615697 -0.20500477 0.96758324
-0.06560649 -0.20523433 0.96866673
-0.055660881 -0.20568773 0.96899992
-0.049643487 -0.20782952 0.96900004
-0.20109819 -0.19773254 0.96900004
-0.19740605 -0.19482376 0.96423078
-0.083597995 -0.19467194 0.96358329
-0.075741291 -0.19524109 0.96794105
-0.068154618 -0.19742656 0.96899992
-0.20109819 -0.18931837 0.96900004
-0.19643472 -0.18537562 0.96426672
-0.095963858 -0.18107964 0.96100003
-0.085331284 -0.18503731 0.96455562
-0.077620536 -0.1878459 0.96899998
-0.1927115 -0.17743535 0.96387506
-0.18853688 -0.17093664 0.96500003
-0.11098429 -0.17190048 0.96100003
-0.10353225 -0.17220244 0.96227282
-0.095170781 -0.17460872 0.96382052
-0.088389911 -0.1777878 0.96579999
-0.18381691 -0.16706136 0.96466666
-0.17606403 -0.163082 0.96437508
-0.16592066 -0.16141041 0.96392316
-0.15704504 -0.16121998 0.96200001
-0.14269409 -0.16105239 0.96100003
-0.13276894 -0.16126783 0.96530008
-0.12470318 -0.16327791 0.96432126
-0.11549111 -0.16603293 0.96512485
-0.10503993 -0.16727577 0.96662951
-0.097037815 -0.16750515 0.9684
-0.16269355 -0.15803002 0.96633339
-0.15503463 -0.15718357 0.96409518
-0.14524488 -0.15611494 0.96316671
-0.1350164 -0.15769991 0.96499991
-0.12575606 -0.15809062 0.967125
-0.10317556 -0.24372819 0.97507149
-0.095035419 -0.24460679 0.9762221
-0.084860645 -0.24385436 0.97590476
-0.075164847 -0.24189618 0.97700018
-0.065081462 -0.24202548 0.97700012
-0.054295149 -0.24008636 0.97700006
-0.1012824 -0.23885767 0.97200006
-0.094176024 -0.23630419 0.97288018
-0.085172758 -0.2373673 0.97237509
-0.073082931 -0.23572557 0.97300017
-0.064718999 -0.23496392 0.97268766
-0.054943085 -0.23444346 0.97533345
-0.04690228 -0.23281468 0.97700012
-0.19363286 -0.22385406 0.97507703
-0.18883212 -0.22643182 0.97300005
-0.068365619 -0.22872943 0.97200006
-0.054001469 -0.22574319 0.97252643
-0.045871418 -0.22526018 0.97577155
-0.039873 -0.22396749 0.97700006
-0.2020601 -0.21354237 0.9754445
-0.19752486 -0.21781258 0.97350007
-0.066114902 -0.2124117 0.97200006
-0.044989157 -0.21498056 0.97409695
-0.03744911 -0.21560508 0.977
-0.20376755 -0.20446068 0.97417653
-0.062457483 -0.20003274 0.97200006
-0.055236425 -0.20059542 0.972
-0.045451552 -0.20462628 0.97473526
-0.03902464 -0.20784862 0.97700006
-0.20454572 -0.19429195 0.97472245
-0.072163716 -0.19201455 0.97200006
-0.064134568 -0.19368654 0.97317266
-0.054851726 -0.19460793 0.97432458
-0.047235444 -0.19781028 0.97618192
-0.20351928 -0.18465668 0.97509104
-0.082431898 -0.18191439 0.97366673
-0.074232213 -0.18482353 0.97391671
-0.064385079 -0.18637441 0.97562504
-0.055396345 -0.18692067 0.97650009
-0.20195627 -0.17787635 0.97640008
-0.19597292 -0.17478012 0.97419059
-0.091748096 -0.17192364 0.97533339
-0.08568453 -0.17730759 0.97700006
-0.076352559 -0.17900431 0.97700006
-0.19171859 -0.16884582 0.97550005
-0.18523525 -0.16467781 0.97471434
-0.17472591 -0.16159585 0.97562516
-0.16882397 -0.16034035 0.97700006
-0.11454684 -0.16236742 0.97475004
-0.10478581 -0.16231903 0.97442114
-0.095104612 -0.16376989 0.97429186
-0.17815596 -0.15694691 0.97700006
-0.12069486 -0.15951979 0.97200006
-0.10469126 -0.15894473 0.97625005
-0.10126504 -0.25103518 0.98000002
-0.076587006 -0.25103518 0.98000002
-0.10438526 -0.24876593 0.98000002
-0.094457299 -0.24933325 0.98000002
-0.084813014 -0.24838774 0.97999996
-0.075614467 -0.24702346 0.97999984
-0.064442255 -0.24577032 0.98245466
-0.054973982 -0.24488671 0.98557138
-0.044134513 -0.24370834 0.9869374
-0.034754749 -0.24337314 0.98771441
-0.027167255 -0.24221753 0.98799998
-0.20160964 -0.23163661 0.98800004
-0.19637209 -0.23276585 0.98518181
-0.053610902 -0.23912165 0.98000002
-0.043841239 -0.23649324 0.98085696
-0.035361346 -0.23478401 0.98344845
-0.025619641 -0.23469543 0.9867745
-0.01930305 -0.23206556 0.98800004
-0.20335285 -0.22427128 0.98492306
-0.19727503 -0.22688998 0.98137504
-0.034958288 -0.22516732 0.98031002
-0.025735509 -0.22514877 0.98521227
-0.018244956 -0.22460173 0.98799998
-0.2110467 -0.2127625 0.98800004
-0.20672667 -0.21540277 0.98308343
-0.03308066 -0.21397693 0.98019981
-0.026366966 -0.21562576 0.98565644
-0.01801618 -0.21876793 0.98800009
-0.2122263 -0.20408788 0.98650008
-0.20891233 -0.20465054 0.98200005
-0.034771178 -0.20461406 0.98145139
-0.027515361 -0.20614147 0.98688889
-0.21233356 -0.19520958 0.986
-0.20848684 -0.1965733 0.98000002
-0.043916538 -0.19411765 0.98049974
-0.035525575 -0.19568209 0.98367518
-0.028311141 -0.19989382 0.98800004
-0.21201184 -0.18802543 0.98650002
-0.20840175 -0.18488483 0.98120004
-0.070630237 -0.18125591 0.98000002
-0.064335927 -0.18182068 0.9804284
-0.053475857 -0.18288432 0.98160857
-0.044780131 -0.18551002 0.98548734
-0.035849057 -0.18851179 0.98769999
-0.20464683 -0.17709807 0.98257148
-0.19867989 -0.1713912 0.98200005
-0.091053434 -0.17189527 0.98000002
-0.08461611 -0.17452523 0.98190886
-0.074815482 -0.17446089 0.98243237
-0.065247439 -0.17613122 0.98468757
-0.05464359 -0.17735566 0.98672223
-0.046613295 -0.17816001 0.98800009
-0.19459821 -0.16614902 0.98414278
-0.1861545 -0.16229425 0.98136365
-0.17700107 -0.1608327 0.98000002
-0.1148805 -0.1608327 0.98000002
-0.1097747 -0.1608327 0.98000002
-0.091123112 -0.16691777 0.98075002
-0.085571602 -0.16666612 0.98511994
-0.077606902 -0.16727966 0.98715377
-0.1847275 -0.1590995 0.98375005
-0.17501548 -0.15856345 0.97999996
-0.12059848 -0.15994266 0.98500007
-0.11518225 -0.15953672 0.98250008
-0.10637084 -0.15913077 0.98000002
-0.099563099 -0.15913077 0.98000002
-0.03203195 -0.26058424 0.99700004
-0.06174219 -0.25363779 0.99100012
-0.055916991 -0.25308102 0.9921428
-0.044751476 -0.25247183 0.99378586
-0.035032667 -0.25387934 0.99483323
-0.024847981 -0.25157133 0.99657154
-0.013851654 -0.2501955 0.99700004
-0.2013613 -0.24008462 0.99100006
-0.050770584 -0.2486898 0.99100006
-0.045033794 -0.24811612 0.99100006
-0.033379123 -0.24781731 0.99133343
-0.024306726 -0.24555188 0.99183339
-0.015374742 -0.24397546 0.99411112
-0.0086572831 -0.24240394 0.99700004
-0.20319423 -0.2343896 0.99200004
-0.021512959 -0.23836358 0.99100006
-0.014903305 -0.23544499 0.99180758
-0.0067032077 -0.23422076 0.99625003
-0.21194389 -0.22319055 0.99625003
-0.20776162 -0.22638528 0.99280006
-0.013481454 -0.22557874 0.99099994
-0.0054948404 -0.22548115 0.9937185
-0.21482748 -0.21482028 0.99456257
-0.022250546 -0.21303976 0.99100012
-0.015254642 -0.21473844 0.99099976
-0.0061566932 -0.2152942 0.99410325
-0.21707813 -0.20527948 0.99400014
-0.023233997 -0.20383526 0.99100012
-0.015494178 -0.20488888 0.99141651
-0.0077796034 -0.20630841 0.99558842
-0.21760932 -0.19561663 0.99481827
-0.030118143 -0.19361663 0.99100006
-0.024979174 -0.19466959 0.99199969
-0.016253067 -0.19703022 0.99481815
-0.0095230117 -0.19998325 0.99700004
-0.21377809 -0.18589738 0.99442869
-0.040444363 -0.18329041 0.99100006
-0.034503631 -0.18429756 0.99346411
-0.027250255 -0.18901902 0.99625003
-0.21037199 -0.17920578 0.99700004
-0.20572823 -0.1744619 0.9950909
-0.064994209 -0.17173821 0.99137509
-0.055742461 -0.17353787 0.99100006
-0.044818666 -0.17654967 0.99099988
-0.036100201 -0.1779227 0.99587512
-0.19756813 -0.16473557 0.99500006
-0.073144063 -0.16866159 0.99100006
-0.066259913 -0.16952212 0.99100006
-0.052256301 -0.26041058 1.003
-0.045960538 -0.26129887 1.0024002
-0.035874713 -0.26200569 1.0024445
-0.025378682 -0.26223457 1.0077777
-0.051965985 -0.25808808 1.003
-0.044778001 -0.25778231 1.00125
-0.033946104 -0.2578688 1.0026
-0.024219893 -0.25713149 1.0041668
-0.017306672 -0.25343764 1.001091
-0.0047108242 -0.25363505 1.0051335
0.0031004236 -0.25252396 1.0069091
-0.017077222 -0.24863279 1
-0.0045170705 -0.24558903 1.0008
0.0052384525 -0.24511965 1.0045669
0.01196216 -0.24128552 1.008
-0.21353033 -0.23143061 1.0057501
-0.20825258 -0.23539563 1.0017999
-0.0034733326 -0.23680694 1
0.005222084 -0.23482159 1.0015833
0.012979557 -0.23391451 1.0076667
-0.22149903 -0.22237344 1.00625
-0.21630631 -0.22589074 1.0038573
-0.0014472222 -0.22200389 1
0.0054603955 -0.22483173 1.0018182
0.014378977 -0.22523963 1.00712
-0.22431085 -0.21429834 1.0051334
-0.21899366 -0.21621501 1
-0.0011164286 -0.21472643 1
0.0051222476 -0.21519963 1.0019412
0.012248275 -0.21717972 1.0075001
-0.22452448 -0.20510188 1.0039546
-0.0031600622 -0.20420299 1.0015
0.0047922609 -0.2054449 1.0049731
-0.22419986 -0.19495571 1.0051249
-0.21968834 -0.19103333 1
-0.021728307 -0.19035517 1.001
-0.014602167 -0.19284315 1.001579
-0.0064308103 -0.1958615 1.0035386
0.00087528001 -0.19868857 1.008
-0.22266938 -0.18606912 1.0066668
-0.21701054 -0.18367201 1.0031334
-0.030970553 -0.18206055 1
-0.024496933 -0.18494155 1.0031877
-0.015377578 -0.18681762 1.0063001
-0.0082238112 -0.18916017 1.0076001
-0.214826 -0.17575313 1.0053333
-0.20838438 -0.17209771 1.0017143
-0.032128334 -0.179745 1
-0.21094249 -0.16892904 1.008
-0.20458178 -0.16832988 1.0034001
-0.19683206 -0.16286547 1.003
0.0088309506 -0.26051304 1.0170001
0.0068603549 -0.25633949 1.0125999
0.014987503 -0.25476658 1.0152
0.022620823 -0.25371999 1.0170001
0.015341556 -0.24559516 1.0120908
0.024699382 -0.24520037 1.0157502
0.030908326 -0.24108495 1.0170001
-0.22281803 -0.23208271 1.0162501
-0.21718244 -0.23456495 1.013625
0.016679816 -0.23626083 1.0109999
0.024886871 -0.2348469 1.014375
0.033027753 -0.23455004 1.0170001
-0.2254986 -0.22520418 1.01375
0.017996643 -0.22254385 1.011
0.024331251 -0.22545177 1.0148182
0.032085788 -0.22724979 1.0170001
-0.23221785 -0.21435668 1.0158751
-0.22842009 -0.21699846 1.0117501
0.01576633 -0.21438368 1.01325
0.022266962 -0.21618837 1.0166668
-0.23290595 -0.20500356 1.0156364
-0.22912799 -0.20279145 1.011
0.008339908 -0.20147462 1.011
0.014558044 -0.20528965 1.0159286
0.020311186 -0.20841041 1.0170001
-0.23268309 -0.19533023 1.0153637
-0.22887717 -0.19426341 1.011
-0.0023423294 -0.19347076 1.012
0.0049080993 -0.19628146 1.0143214
0.01236333 -0.19869637 1.0170001
-0.23431456 -0.18466896 1.0157144
-0.22786586 -0.18442488 1.0120714
-0.012971925 -0.18359618 1.0128751
-0.0061610113 -0.18720591 1.0142144
0.00088309502 -0.18986543 1.0170001
-0.23412189 -0.17508009 1.01475
-0.22521973 -0.17506337 1.0122352
-0.21718876 -0.17188989 1.011
-0.23211698 -0.16821736 1.0164001
-0.22591367 -0.16912676 1.0155001
-0.21534581 -0.16848445 1.0150001
-0.20621966 -0.16588521 1.0137273
0.015879754 -0.264386 1.023
0.023852682 -0.26463142 1.0242275
0.031181851 -0.26103663 1.026
0.026215607 -0.25681618 1.0208573
0.034507375 -0.25463179 1.023682
0.04187277 -0.25212753 1.026
-0.22167444 -0.24215104 1.02525
-0.21441282 -0.24351306 1.0238181
0.035130639 -0.24530764 1.021778
0.044699088 -0.24512318 1.0260005
-0.23111475 -0.23111475 1.025
-0.22526737 -0.23592325 1.0224545
-0.21876791 -0.23825331 1.0200001
0.038393296 -0.23533331 1.0209231
0.045367803 -0.23483509 1.0244002
0.052563682 -0.23430938 1.026
-0.23417482 -0.22334605 1.0232728
-0.22939631 -0.2267392 1.0200001
0.028637633 -0.22112978 1.0200001
0.035989515 -0.22475858 1.0211382
0.044778146 -0.22443423 1.0249658
0.050781872 -0.22629115 1.026
-0.24143662 -0.21114567 1.026
-0.23732765 -0.21541309 1.023
0.027216356 -0.21421476 1.0214212
0.034700342 -0.2153019 1.0246004
0.040803678 -0.21684749 1.026
-0.24143662 -0.20461233 1.026
-0.23766932 -0.2054071 1.0216365
0.018009234 -0.20164438 1.0200001
0.02513136 -0.20486332 1.0226473
0.032852303 -0.20546614 1.026
-0.2415106 -0.19345877 1.0247999
-0.23765959 -0.19509389 1.0212501
0.0069479696 -0.19218214 1.0215001
0.014950965 -0.19567132 1.0227501
0.023705652 -0.19752687 1.0244118
0.03207276 -0.19867294 1.026
-0.24255499 -0.18480049 1.0231875
-0.23825331 -0.18865411 1.0200001
-0.014254561 -0.18263656 1.026
-0.0043258634 -0.18544249 1.0238001
0.0044525969 -0.1890416 1.0245
-0.24205233 -0.17541046 1.0232143
-0.23825331 -0.17271151 1.0200001
-0.24096598 -0.16805203 1.024
-0.23536921 -0.16528025 1.0228636
-0.22463281 -0.16468377 1.0215002
-0.21550204 -0.1635661 1.0223752
-0.20578742 -0.16317829 1.0222501
-0.19808979 -0.1638266 1.023
-0.22094569 -0.1594729 1.026
-0.21738204 -0.1594729 1.026
0.027473634 -0.27399918 1.0339
0.035464775 -0.27357239 1.0377647
0.042403318 -0.27390742 1.0389999
0.012521368 -0.26920938 1.0300001
0.027960228 -0.26774222 1.0303751
0.035285637 -0.26484963 1.0323185
0.04473779 -0.2647332 1.033931
0.054352663 -0.26433313 1.0381174
0.062612571 -0.26145706 1.039
-0.22358432 -0.25153166 1.03825
-0.21617419 -0.25025976 1.033
0.046060733 -0.25579366 1.0300001
0.054739632 -0.25483111 1.0333463
0.06372802 -0.25507605 1.0389997
0.07127367 -0.25261554 1.039
-0.24088696 -0.24088696 1.039
-0.23477431 -0.24444763 1.0375789
-0.22565888 -0.24590445 1.033
-0.21726122 -0.24667266 1.0308573
0.054420765 -0.24482869 1.0311112
0.06491863 -0.2452423 1.0383333
0.072093844 -0.24580804 1.0389999
-0.24352153 -0.23440941 1.0378333
-0.23550399 -0.23550186 1.0335294
-0.22806776 -0.23880036 1.0300001
0.057240535 -0.23522285 1.03
0.064784721 -0.23469208 1.0365806
0.07127367 -0.23818037 1.039
-0.25171334 -0.22404592 1.039
-0.24556138 -0.22495088 1.0358636
-0.23736648 -0.22739604 1.0304288
0.047998574 -0.22150894 1.0300001
0.055337053 -0.22498117 1.0313931
0.063078016 -0.22584082 1.0369998
-0.25171334 -0.21562541 1.039
-0.24606772 -0.21527629 1.0346956
0.038458485 -0.21018009 1.0300001
0.045347977 -0.21426146 1.0304842
0.053586222 -0.21608323 1.0358571
-0.24635758 -0.20438507 1.0347646
0.037061024 -0.2043442 1.0302142
0.044352598 -0.20492019 1.0330938
0.051351063 -0.20900653 1.0375
-0.25171334 -0.19036385 1.039
-0.24698329 -0.19565907 1.0342857
0.015879141 -0.19177021 1.0352501
0.02488004 -0.19507116 1.0335454
0.03498495 -0.19754082 1.0330001
0.041161317 -0.19859247 1.038
-0.25156799 -0.18484594 1.0384001
-0.24882656 -0.18505181 1.0345
-0.015461386 -0.18228842 1.036
-0.0048204982 -0.18192144 1.0320624
0.0049874671 -0.18515775 1.033931
-0.25159219 -0.17494182 1.0385
-0.2475338 -0.17386283 1.0321
-0.014401959 -0.17914867 1.0367501
-0.0071876291 -0.17875987 1.0345
0.00089959335 -0.17901908 1.036
-0.25171334 -0.1687111 1.039
-0.24545363 -0.16526051 1.035
-0.23510724 -0.16116203 1.0316364
-0.2275029 -0.16122214 1.0315001
-0.21301627 -0.16021119 1.0307502
-0.20450814 -0.16145618 1.0330001
-0.19803253 -0.1646512 1.039
-0.18765727 -0.1642001 1.039
-0.24116418 -0.15822054 1.03825
-0.23402183 -0.1556851 1.0374346
-0.22505836 -0.15548494 1.0363102
-0.21479227 -0.15650518 1.0361302
-0.20511614 -0.15699951 1.0371428
-0.22194079 -0.14886273 1.039
-0.21021222 -0.002706595 1.039
-0.20640574 -0.0027051477 1.0380001
-0.21101417 0.0049119685 1.039
-0.20618449 0.005559836 1.0368824
-0.20540556 0.011711646 1.0375
0.038906544 -0.27777463 1.0420001
0.046502184 -0.27549851 1.042375
0.054644085 -0.27293122 1.0447694
0.063202292 -0.27189925 1.04725
0.070981041 -0.27027395 1.0480001
0.0584503 -0.26655507 1.0420001
0.0654011 -0.26565617 1.042913
0.074856192 -0.26386872 1.0465002
0.0819012 -0.26208386 1.0480001
-0.23445131 -0.25171292 1.0465001
-0.22891524 -0.25244012 1.0420001
0.068538852 -0.25673798 1.0419999
0.075481459 -0.25534022 1.0429131
0.08343333 -0.25465766 1.0466502
-0.2415825 -0.24339211 1.0420001
-0.23723945 -0.24664938 1.0420001
0.076841831 -0.24479403 1.0425293
0.083366826 -0.24463829 1.0469502
-0.25063053 -0.23072486 1.0420001
-0.24882093 -0.23072486 1.0420001
0.069669858 -0.23162967 1.0420001
0.075437382 -0.23484202 1.0430714
0.083114557 -0.23569348 1.0480002
-0.25359067 -0.22430062 1.0430001
0.066694438 -0.22300813 1.0437647
0.075016126 -0.22509874 1.0460347
0.081901208 -0.22477332 1.0480002
-0.25589344 -0.21480383 1.0450001
0.057316422 -0.21402231 1.0444
0.063285999 -0.21844353 1.0475715
0.070071027 -0.21931322 1.0480001
-0.25560799 -0.20519297 1.0460001
0.048425909 -0.20259467 1.0444
0.053038239 -0.20670041 1.0459001
-0.25613725 -0.19528091 1.0460001
0.016286461 -0.19091351 1.0420001
0.024925508 -0.19339071 1.044
0.035045758 -0.1957477 1.0456001
0.042671639 -0.19810747 1.0456002
-0.25664982 -0.18481238 1.0448236
-0.011762444 -0.18186547 1.0420001
-0.0099814916 -0.18148167 1.0450001
0.0090551972 -0.18380728 1.0427501
0.013976956 -0.18806526 1.0453001
-0.25682619 -0.17486529 1.0456002
-0.25449613 -0.16478813 1.0456002
-0.24737325 -0.16087404 1.0420001
-0.19493614 -0.16268921 1.0432
-0.1878024 -0.16288669 1.0462859
-0.25353056 -0.15484497 1.0474377
-0.24588791 -0.15471661 1.0435652
-0.23776221 -0.15291177 1.0419999
-0.22361302 -0.15118916 1.0426
-0.21527009 -0.15232746 1.0436363
-0.20488189 -0.15233903 1.04325
-0.19574723 -0.15524843 1.0451876
-0.18746275 -0.15834233 1.0480001
-0.25259373 -0.14456211 1.0480002
-0.24480595 -0.145463 1.0453751
-0.23482588 -0.14498493 1.0433547
-0.22551326 -0.14446034 1.042107
-0.21559918 -0.14494342 1.04325
-0.20515354 -0.14524086 1.0454167
-0.19877292 -0.14547214 1.0480002
-0.25116369 -0.13468198 1.0480002
-0.24431573 -0.13503884 1.0453463
-0.23488359 -0.13512768 1.0444001
-0.22517654 -0.13489607 1.0441428
-0.21461178 -0.13473926 1.0452727
-0.20572087 -0.13504674 1.0474447
-0.25141189 -0.12450638 1.0480002
-0.24430834 -0.12523821 1.0464485
-0.23495075 -0.12518515 1.0447
-0.2250372 -0.12522236 1.0449998
-0.21467304 -0.12497259 1.0463637
-0.2053602 -0.12510899 1.0478503
-0.25025368 -0.1155717 1.0480001
-0.2443036 -0.11508171 1.0480002
-0.23538391 -0.11473817 1.0457501
-0.22503723 -0.11524084 1.0450001
-0.21423841 -0.11476375 1.0465002
-0.20793806 -0.11534418 1.0480002
-0.24340181 -0.10433036 1.0480002
-0.23505974 -0.10480742 1.0476899
-0.22495915 -0.10555888 1.0458822
-0.21676132 -0.10677287 1.0474002
-0.24376488 -0.09483923 1.0480002
-0.23478344 -0.09464138 1.0480002
-0.22477336 -0.09464138 1.0480002
-0.21931322 -0.091911346 1.0480001
-0.24260955 -0.087543286 1.0480001
-0.23396011 -0.085757934 1.0480002
-0.22477335 -0.084631234 1.0480002
-0.21900988 -0.08523792 1.0480002
-0.22411147 -0.076689318 1.0480002
-0.23205343 -0.063618213 1.0480002
-0.22416139 -0.063090108 1.0474547
-0.21931322 -0.060970895 1.0480001
-0.23159842 -0.055359151 1.0480002
-0.22457689 -0.054843102 1.0477602
-0.21594617 -0.053053778 1.0480002
-0.232169 -0.044578932 1.0477002
-0.22458178 -0.044823002 1.0451936
-0.21582 -0.0451652 1.0472503
-0.23434877 -0.034970261 1.0460501
-0.22495212 -0.035222284 1.0452905
-0.21800491 -0.0354819 1.0477694
-0.23344311 -0.025457872 1.047182
-0.22526404 -0.025710367 1.0467421
-0.21931322 -0.027300401 1.0480001
-0.23132542 -0.018018264 1.0480001
-0.22529334 -0.013823537 1.0480002
-0.21614943 -0.012477764 1.047786
-0.20748305 -0.010010147 1.0480001
-0.22181576 -0.0050050737 1.0480002
-0.21507749 -0.0054054447 1.04404
-0.20730025 -0.0072423345 1.0425
-0.22113325 0.00091001333 1.0480001
-0.2147837 0.0037235105 1.0436666
-0.2117276 0.013894058 1.0435001
-0.20769168 0.016383635 1.0428182
-0.20671502 0.025928525 1.0448421
-0.21194467 0.036166705 1.0450001
-0.2059871 0.035213161 1.04425
-0.21210036 0.045126416 1.0463334
-0.20755254 0.044006329 1.0456002
-0.21251591 0.055809524 1.0468001
-0.20839305 0.057330839 1.0480001
-0.2132418 0.064760111 1.0465653
-0.20839305 0.064610951 1.0480001
-0.21500963 0.074493334 1.0478127
-0.20930676 0.075365037 1.0457501
-0.21494666 0.085040964 1.0461539
-0.20949098 0.085428372 1.0444
-0.22295327 0.095551401 1.0480001
-0.21517198 0.094317086 1.0474784
-0.20883355 0.093981579 1.0450001
-0.21546911 0.1009151 1.0470001
0.057076044 -0.28171363 1.0528573
0.064457595 -0.28114498 1.0574
0.074873783 -0.28066182 1.0580001
0.057549659 -0.27769998 1.052
0.065431401 -0.27630326 1.0534002
0.075079918 -0.27439794 1.0544002
0.082299188 -0.27137184 1.057
0.077684142 -0.2680833 1.0525001
0.085808218 -0.26497555 1.0540626
0.091477476 -0.26219356 1.057
-0.23399442 -0.25595629 1.054
0.087825224 -0.25460178 1.052
0.093203843 -0.2547209 1.0550002
0.088347211 -0.24546693 1.052
0.093608521 -0.2446505 1.0542501
0.08711341 -0.23376952 1.052
0.093400449 -0.23534609 1.0550002
0.068511501 -0.22015029 1.052
0.076123893 -0.22045477 1.052
0.086375035 -0.22438812 1.0526001
0.091313608 -0.22621548 1.056875
-0.26475441 -0.212761 1.0550001
0.059376638 -0.2128424 1.052
0.065141268 -0.21428075 1.0525455
0.07477238 -0.21480344 1.053839
0.08451961 -0.21649812 1.0536876
0.090950973 -0.21956851 1.0580001
-0.26511502 -0.20432381 1.0542501
0.047501311 -0.20005359 1.052
0.055875085 -0.20450859 1.0548638
0.06508106 -0.20715344 1.0556003
0.07063935 -0.20916457 1.0565001
-0.26475975 -0.19572215 1.0558826
0.026491117 -0.19228894 1.052
0.035029899 -0.19289535 1.053412
0.045226503 -0.19496 1.0553914
0.050432801 -0.19592495 1.0560001
-0.26391861 -0.18546456 1.0550002
0.016244186 -0.18561722 1.0546844
0.024618004 -0.18527493 1.0554141
0.033803485 -0.18734227 1.0551581
0.043907277 -0.18936136 1.0535001
-0.26357603 -0.17497163 1.0550001
-0.26313454 -0.16594768 1.0558574
-0.25851673 -0.16168715 1.052
-0.18544324 -0.16295339 1.05725
-0.26182857 -0.15525976 1.0580001
-0.25833645 -0.15499914 1.0531251
-0.19232064 -0.15257634 1.0547001
-0.18546525 -0.15538426 1.0566959
-0.26278794 -0.14541344 1.057308
-0.25770476 -0.14483839 1.052
-0.19480681 -0.14531343 1.0555772
-0.18612795 -0.14901261 1.0580001
-0.26201105 -0.13559879 1.0575001
-0.25705779 -0.13538867 1.0535001
-0.2009359 -0.13481468 1.0522728
-0.19701503 -0.13658671 1.0567144
-0.26164296 -0.12577222 1.05725
-0.25724036 -0.12473191 1.0533127
-0.20185255 -0.12373496 1.0542501
-0.19935718 -0.12769884 1.0580001
-0.26168007 -0.11476989 1.0574
-0.25589713 -0.11471571 1.0539566
-0.24892512 -0.11235886 1.052
-0.2041017 -0.11479858 1.0544232
-0.19935718 -0.11575578 1.0580001
-0.26182857 -0.10656882 1.0580001
-0.25548416 -0.10503566 1.0539616
-0.24869676 -0.10573608 1.052
-0.22015029 -0.10139702 1.052
-0.21394625 -0.10399979 1.0529375
-0.20592608 -0.10507033 1.0559003
-0.19935718 -0.10932491 1.0580001
-0.26351285 -0.09416642 1.0580002
-0.2551167 -0.094984278 1.0535519
-0.24912088 -0.094350122 1.052
-0.22015029 -0.097743072 1.052
-0.21433413 -0.095073365 1.0542289
-0.20806955 -0.095819138 1.0576668
-0.26261601 -0.086751215 1.0580001
-0.25561565 -0.085135564 1.0567781
-0.24511892 -0.084258273 1.052
-0.23628855 -0.081909306 1.052
-0.21412048 -0.084839232 1.0538216
-0.20885436 -0.08721301 1.05725
-0.25513971 -0.075256214 1.0569167
-0.24438591 -0.075053774 1.0541002
-0.23501334 -0.074983269 1.0531001
-0.22468342 -0.074017115 1.0523601
-0.21499987 -0.075446554 1.0560912
-0.25399166 -0.06806393 1.0576668
-0.24419057 -0.065910198 1.0565792
-0.23620154 -0.065640546 1.052
-0.22482236 -0.066005737 1.0525001
-0.21666366 -0.065141775 1.0565792
-0.24207658 -0.058337241 1.0580001
-0.23670319 -0.054393902 1.0538335
-0.22624022 -0.058767647 1.052
-0.21315815 -0.057265822 1.0546472
-0.20569196 -0.053600587 1.0562004
-0.19663252 -0.051910706 1.0562001
-0.24192345 -0.044403672 1.0580001
-0.23750176 -0.045305729 1.054
-0.21188439 -0.043472614 1.0524286
-0.20533662 -0.044915669 1.0557003
-0.19671135 -0.045401737 1.0575004
-0.24173491 -0.034798458 1.0545001
-0.23842002 -0.039279927 1.052
-0.21346416 -0.034413755 1.0554141
-0.2062168 -0.036809109 1.0580003
-0.19935718 -0.039503958 1.0580001
-0.24190098 -0.024952523 1.0556668
-0.23796327 -0.022380423 1.052
-0.22060703 -0.022380425 1.052
-0.21458246 -0.024760094 1.0561002
-0.20854416 -0.02480481 1.0580001
-0.24161723 -0.018373933 1.0580001
-0.23527987 -0.014429303 1.0542859
-0.22363816 -0.016691893 1.052
-0.21379259 -0.016716328 1.0554287
-0.20855474 -0.014862567 1.0562001
-0.23299265 -0.0067162686 1.0550002
-0.22707833 -0.0058985096 1.0525455
-0.20918845 0.057549663 1.052
-0.22197728 0.077646367 1.052
-0.2234464 0.085226052 1.0536156
-0.22406395 0.095350951 1.0525001
-0.21832332 0.098656565 1.052
-0.22015029 0.10139702 1.052
0.083464205 -0.28099614 1.0680001
0.078310646 -0.27915442 1.0610001
0.08589755 -0.27588448 1.0648422
0.095379129 -0.27409568 1.0664002
0.10419066 -0.27386129 1.06775
0.11035822 -0.27172235 1.0680001
0.087523662 -0.26994139 1.0610001
0.095828801 -0.2656239 1.062737
0.10484218 -0.26503047 1.064296
0.11394801 -0.26464203 1.0677896
-0.23861714 -0.25704318 1.0610001
0.098052822 -0.25599024 1.061
0.1054249 -0.25504807 1.0636568
0.1141181 -0.2548568 1.0655555
0.09857928 -0.24783015 1.0610001
0.10494911 -0.24499479 1.0638999
0.11351781 -0.2443864 1.0678097
0.097980566 -0.23359999 1.0625
0.10421764 -0.23549651 1.0664617
0.11180083 -0.23627581 1.068
0.095648721 -0.22563797 1.0652666
0.10108443 -0.22906287 1.0680001
-0.27261961 -0.21272314 1.0666667
-0.26898319 -0.21445012 1.0645001
0.077389345 -0.21097809 1.0610001
0.085206151 -0.21289387 1.0636876
0.091638692 -0.2184501 1.066
-0.27216822 -0.20850986 1.0625
-0.26902008 -0.20913549 1.0610001
0.057482511 -0.2013393 1.062
0.065026984 -0.20248078 1.0653529
0.075063437 -0.20521677 1.0654136
0.083053879 -0.20666984 1.0666667
-0.27178401 -0.19163075 1.0610001
-0.26915169 -0.1938682 1.061
0.054495685 -0.19673097 1.0636841
0.064673468 -0.19863994 1.064
0.072988629 -0.19863994 1.064
-0.27236035 -0.18510979 1.0632501
-0.26902011 -0.18518165 1.061
0.015662128 -0.18211062 1.061
-0.2717396 -0.17558579 1.0618572
-0.26912248 -0.17555916 1.061
-0.18293352 -0.17092274 1.064
-0.27149022 -0.16640334 1.0646667
-0.26732722 -0.16404188 1.062
-0.18233061 -0.16608758 1.0630001
-0.27172235 -0.15579985 1.0680001
-0.26682839 -0.15562254 1.0628124
-0.27070466 -0.14874898 1.064
-0.26707512 -0.14484911 1.061
-0.19149914 -0.14332822 1.061
-0.18689264 -0.1439863 1.061
-0.2661975 -0.1367238 1.0628573
-0.19368334 -0.13376454 1.0630909
-0.18725926 -0.13744472 1.0623333
-0.26528642 -0.12202358 1.0630001
-0.19669075 -0.12508889 1.0626802
-0.27203146 -0.114686 1.068
-0.26689219 -0.11503957 1.0630624
-0.19667794 -0.11538742 1.0638636
-0.27070466 -0.10809708 1.064
-0.26585111 -0.10442957 1.0613159
-0.20166336 -0.10234636 1.0618572
-0.19845416 -0.1056049 1.0650001
-0.26794526 -0.095201172 1.061
-0.2037628 -0.095043093 1.0636667
-0.1993867 -0.099229664 1.0680001
-0.27246824 -0.082198173 1.0636667
-0.26711333 -0.084288843 1.0614094
-0.20671703 -0.085248612 1.0640528
-0.27382115 -0.076777093 1.0676364
-0.26595628 -0.075033918 1.0640526
-0.21097809 -0.072782837 1.0610001
-0.20754656 -0.074569114 1.0635
-0.26422659 -0.067948475 1.0632001
-0.25436449 -0.064115748 1.0635715
-0.2479703 -0.062498122 1.0616001
-0.21215066 -0.06541241 1.061
-0.20748723 -0.065286927 1.0642352
-0.24601899 -0.054491621 1.0636317
-0.20413414 -0.058568466 1.061
-0.24685217 -0.045541856 1.0641428
-0.19531596 -0.041458577 1.0610001
-0.25131997 -0.032458302 1.0680001
-0.24749283 -0.03509051 1.0634999
-0.20409901 -0.03310544 1.061
-0.19538614 -0.034913495 1.0621142
-0.24771696 -0.024814205 1.0655454
-0.20452897 -0.024875142 1.0610001
-0.19614288 -0.025254637 1.0620385
-0.24429825 -0.015094008 1.0643333
-0.23861714 -0.010134319 1.0610001
-0.2049133 -0.015672795 1.0618571
-0.19765465 -0.017079519 1.061
-0.23677453 -0.0082917148 1.0610001
0.07904873 -0.2845754 1.0710001
0.085456759 -0.28574175 1.0740626
0.094335906 -0.28424576 1.0742002
0.10477067 -0.28402662 1.0766666
0.11288925 -0.28250393 1.0780001
0.094858468 -0.2799255 1.0710001
0.10575909 -0.27850536 1.0715001
0.11504446 -0.27554241 1.0746191
0.12419697 -0.27299085 1.0777143
0.13011281 -0.27145839 1.0780001
0.1183406 -0.26620823 1.0710001
0.12472543 -0.26463339 1.0748181
0.13198492 -0.26490593 1.0780002
0.11922409 -0.25444388 1.0710001
0.12522633 -0.25511783 1.0762
0.13185121 -0.25581273 1.0780001
0.11893475 -0.24499941 1.0710001
0.12513635 -0.24491759 1.0770398
0.13136089 -0.24701673 1.0780001
0.10756827 -0.23218626 1.0710001
0.11582656 -0.23388119 1.0730999
0.12201785 -0.23692198 1.0776001
0.097829476 -0.22291116 1.073
0.10532249 -0.22566353 1.0746894
0.11299015 -0.22758995 1.0770001
0.088596053 -0.21169794 1.074
0.093723662 -0.21759208 1.0766251
0.087418586 -0.20924664 1.0710001
-0.27480954 -0.16352049 1.072
-0.27535155 -0.15707932 1.0725
-0.19064693 -0.13205788 1.0710001
-0.18878695 -0.13484783 1.0710001
-0.19198945 -0.1244403 1.0740715
-0.18814874 -0.12075217 1.0780001
-0.19192606 -0.11476453 1.0735555
-0.18834324 -0.11475372 1.0773333
-0.19301718 -0.10519195 1.0742692
-0.18814874 -0.10858335 1.0780001
-0.20137346 -0.090912759 1.072
-0.19603534 -0.095236391 1.0742579
-0.20270823 -0.084539339 1.0725001
-0.19618072 -0.085145213 1.0750526
-0.27472034 -0.073497474 1.0714287
-0.20385961 -0.076299213 1.0734286
-0.19864167 -0.079270154 1.074
-0.27231628 -0.069944255 1.074
-0.25674224 -0.061340801 1.0736001
-0.20479059 -0.0674669 1.0727142
-0.25505385 -0.054915294 1.0740589
-0.25480676 -0.045362487 1.0743752
-0.25519347 -0.034949422 1.07335
-0.25559372 -0.025185788 1.07425
-0.2601926 -0.017719211 1.074
-0.25377533 -0.016725432 1.0742
-0.24816377 -0.011743687 1.0736001
-0.25180104 -0.0084245699 1.0780001
-0.24504872 -0.0083854953 1.0730001
0.11053536 -0.3013742 1.0880001
0.088234827 -0.29192585 1.0810001
0.095303684 -0.29171014 1.0827274
0.10488472 -0.29412234 1.0837272
0.1135025 -0.29431519 1.0856498
0.12445062 -0.29085064 1.0857501
0.098560177 -0.28817117 1.0810001
0.1075714 -0.28779572 1.0810001
0.11653099 -0.28603953 1.0822501
0.12484975 -0.28466582 1.0831739
0.13440208 -0.2831046 1.0861667
0.12588586 -0.27774155 1.0810002
0.13462335 -0.27556893 1.0827727
0.14460666 -0.27416757 1.0864284
0.15172632 -0.27265391 1.0880001
0.13798426 -0.26470447 1.0810001
0.14567305 -0.26443475 1.0828462
0.15288119 -0.26518205 1.0868001
0.13754255 -0.25404781 1.0810002
0.14579883 -0.25495994 1.0837998
0.15261412 -0.25449058 1.087786
0.1360216 -0.24456574 1.081
0.14379513 -0.24517444 1.0853157
0.15084456 -0.24783856 1.0880001
0.12634468 -0.23424196 1.0834
0.13425921 -0.23683053 1.0846816
0.14171201 -0.23902091 1.0880001
0.10553314 -0.22085524 1.0810002
0.11660165 -0.22382174 1.0840435
0.12263439 -0.22781192 1.0863751
0.095824368 -0.214028 1.0854583
0.10444219 -0.2154061 1.0849998
0.11175364 -0.21716881 1.0867144
0.095419407 -0.20878902 1.0880001
0.10203265 -0.20878902 1.0880001
-0.19054967 -0.12578157 1.0810001
-0.18559459 -0.12258136 1.0850002
-0.17729747 -0.12313199 1.0880001
-0.18378057 -0.1152273 1.0861722
-0.19054967 -0.10043751 1.0810001
-0.18503876 -0.1049109 1.0856785
-0.17855713 -0.10581163 1.0880001
-0.19118679 -0.094050065 1.0815716
-0.18508279 -0.095161915 1.0865515
-0.17836019 -0.095317297 1.0868
-0.19177039 -0.085545257 1.0826001
-0.18565364 -0.085391603 1.0864482
-0.17900692 -0.086677037 1.085
-0.26447162 -0.06313435 1.0851668
-0.26422632 -0.055399761 1.0854445
-0.26316586 -0.045398206 1.0846999
-0.26433662 -0.035232853 1.0848669
-0.26428905 -0.025894498 1.0844169
-0.25344044 -0.010325352 1.0810001
0.11652426 -0.30031049 1.0910001
0.12455808 -0.30141154 1.095
0.099471927 -0.29841578 1.0910001
0.10136663 -0.29841578 1.0910001
0.11715582 -0.29715264 1.0910001
0.12520908 -0.29613727 1.0935715
0.13470803 -0.29394409 1.0947999
0.14431049 -0.29205155 1.0976999
0.15604471 -0.29079616 1.098
0.16400103 -0.29111332 1.0965002
0.1716174 -0.29079616 1.098
0.13608558 -0.28773928 1.0915715
0.14518639 -0.28467667 1.0927999
0.15532146 -0.28495881 1.0955453
0.16463822 -0.28454798 1.0959599
0.17285863 -0.28403169 1.0974
0.14620794 -0.27946874 1.0910001
0.15504383 -0.27624443 1.0914705
0.16468942 -0.27503243 1.0946521
0.17402399 -0.27559292 1.0972172
0.1572604 -0.26525846 1.091
0.16415049 -0.26548514 1.094111
0.17354545 -0.26564327 1.0978693
0.15726039 -0.2548376 1.091
0.16453372 -0.25484151 1.0943791
0.17151147 -0.25435394 1.098
0.14827077 -0.24332425 1.0915715
0.15506506 -0.24442065 1.0930738
0.16377436 -0.24545133 1.096238
0.12883982 -0.23020646 1.0910001
0.13623931 -0.23202036 1.0913075
0.14534156 -0.23583557 1.0951664
0.15447129 -0.23708107 1.0971429
0.16112967 -0.23931094 1.098
0.12611778 -0.22398637 1.0928094
0.13432331 -0.22583163 1.0956188
0.14015421 -0.22786978 1.098
0.10831388 -0.211891 1.0910001
0.11574849 -0.21593854 1.0933077
0.12300832 -0.21841168 1.096
0.097485952 -0.20624606 1.0923334
0.10332327 -0.20727871 1.0916667
-0.18283887 -0.12505043 1.0910001
-0.1775417 -0.12133761 1.0934001
-0.17769447 -0.11523003 1.0925386
-0.18094417 -0.10231398 1.0910001
-0.17796679 -0.10542671 1.0910001
-0.18094417 -0.099471927 1.0910001
-0.2725448 -0.064697042 1.098
-0.26810053 -0.062525213 1.0910001
-0.27316573 -0.054758187 1.09675
-0.26936367 -0.05273591 1.0910001
-0.27355853 -0.044504564 1.0971429
-0.26857421 -0.044051856 1.0910001
-0.27420092 -0.035136394 1.0971175
-0.26904789 -0.032209955 1.0910001
-0.27406448 -0.025694678 1.0958998
-0.26810053 -0.024631143 1.0910001
0.11993854 -0.30320466 1.105
0.12527147 -0.30298856 1.1037143
0.13429947 -0.30234736 1.1027501
0.14554918 -0.30187774 1.1067778
0.15565844 -0.30265528 1.1076667
0.16425715 -0.30388951 1.1090001
0.17237373 -0.30398121 1.1090001
0.18152206 -0.30189478 1.1090001
0.13779408 -0.29951075 1.102
0.14518611 -0.29707447 1.1029001
0.1547512 -0.29566014 1.1038888
0.16537014 -0.29714027 1.1057693
0.17548178 -0.2957111 1.1056666
0.18413937 -0.29547516 1.1080474
0.17723975 -0.28717735 1.1020001
0.18467285 -0.28455064 1.1050452
0.17894092 -0.27367437 1.102
0.18496227 -0.27465516 1.1036398
0.1927339 -0.27252382 1.1090001
0.17812072 -0.26396862 1.1020001
0.18496503 -0.26452392 1.104448
0.19307785 -0.26530144 1.1090001
0.17700434 -0.2549406 1.1031052
0.18490739 -0.25486451 1.1064544
0.19259635 -0.25904208 1.1090001
0.16777261 -0.24224186 1.1026667
0.17449439 -0.24524322 1.1052271
0.1833792 -0.2461106 1.1089998
0.14615454 -0.23135628 1.1025001
0.15562789 -0.23320213 1.1029376
0.16485666 -0.23449963 1.105769
0.17349721 -0.23769598 1.1090001
0.18007758 -0.23978244 1.1090001
0.1367045 -0.22182617 1.104
0.14472327 -0.22615436 1.10595
0.15447113 -0.22743249 1.107353
0.16185752 -0.22806063 1.1082001
0.11672559 -0.21355841 1.1057143
0.12540933 -0.21755107 1.1053334
0.13309728 -0.21908137 1.1072859
-0.28542775 -0.062208623 1.1090001
-0.27721304 -0.063995369 1.1027502
-0.2927081 -0.055627547 1.1072859
-0.28541869 -0.054967668 1.1073331
-0.27791205 -0.055363692 1.1020001
-0.29178345 -0.041408215 1.1090001
-0.2843467 -0.044930749 1.1053808
-0.27845886 -0.044974457 1.102
-0.29207465 -0.035909634 1.1076669
-0.28474206 -0.035472874 1.1040797
-0.27845886 -0.038276136 1.102
-0.28218329 -0.027235592 1.1022729
0.16912962 -0.30346689 1.113
0.17548063 -0.30332884 1.113
0.18845873 -0.30056751 1.113
0.19090483 -0.30137765 1.1160001
0.19234702 -0.295109 1.1148462
0.19430421 -0.28455076 1.1144209
0.19606319 -0.2760348 1.1132728
0.20321904 -0.27381256 1.1148462
0.21028602 -0.27036774 1.1160001
0.19739842 -0.26505029 1.113
0.204034 -0.26553077 1.1136003
0.2111474 -0.26412269 1.1160001
0.19477195 -0.25465786 1.113808
0.20330213 -0.25727105 1.1145881
0.21157809 -0.258093 1.1160001
0.18652581 -0.24209698 1.113
0.19476034 -0.24514538 1.1158798
0.20059542 -0.24904843 1.1160001
0.16912962 -0.23098275 1.113
0.1758922 -0.2338182 1.1140589
0.18475214 -0.23504843 1.1139601
0.1920677 -0.23780732 1.1160001
0.14675854 -0.22267541 1.1137501
0.15580858 -0.22313556 1.1145
0.16550139 -0.22589295 1.1145999
0.17346175 -0.22966723 1.1160001
0.1841214 -0.22966723 1.1160001
0.1179023 -0.21157809 1.1160001
0.1244072 -0.21478823 1.1146154
0.13462484 -0.21830785 1.1154001
0.14381099 -0.21982881 1.1152501
0.15214242 -0.21997663 1.1160001
-0.29168707 -0.064927019 1.1160001
-0.28645492 -0.065325588 1.1145
-0.29283586 -0.051705346 1.113
-0.2939308 -0.045582455 1.1139376
-0.29412448 -0.036403138 1.113
0.19724679 -0.30161387 1.1212
0.20228693 -0.30051282 1.12
0.19822818 -0.29482302 1.1205455
0.20497055 -0.29473132 1.1247391
0.21301113 -0.29456216 1.1270001
0.1983968 -0.28786987 1.12
0.20490874 -0.28491586 1.1236874
0.21344608 -0.28444982 1.1270001
0.22018763 -0.28184018 1.1270001
0.20760211 -0.27769485 1.121125
0.21535701 -0.27480119 1.1222223
0.22415268 -0.27460665 1.1249413
0.2166318 -0.26574478 1.12
0.22460938 -0.26428902 1.1231306
0.20617707 -0.25383118 1.12
0.21545431 -0.2546106 1.1212225
0.22472346 -0.25501007 1.1252
0.19742428 -0.24021573 1.12
0.20553039 -0.24513492 1.1210345
0.21526685 -0.24512629 1.1235216
0.22515602 -0.24547899 1.1263044
0.235193 -0.24236949 1.127
0.24171709 -0.24171709 1.1270001
0.17894614 -0.2304904 1.12
0.18640222 -0.2304904 1.12
0.19611964 -0.23427758 1.1216363
0.20536536 -0.23543358 1.1237725
0.21383914 -0.23612434 1.1267779
0.22018763 -0.23975986 1.1270001
0.2361716 -0.23878126 1.127
0.24249998 -0.23819408 1.1270001
0.14685254 -0.22076507 1.12
0.15511906 -0.22076507 1.12
0.16543873 -0.22184566 1.12
0.17512873 -0.22474633 1.1204617
0.18498649 -0.22490269 1.1212498
0.19489862 -0.22464325 1.1253703
0.20448171 -0.22502631 1.1267335
0.21162479 -0.22777188 1.127
0.1259516 -0.21294588 1.1215
0.13528275 -0.21718548 1.1228751
0.14565259 -0.21816252 1.123
0.15541039 -0.21685505 1.1232778
0.16510867 -0.21585451 1.1240001
0.17498535 -0.21506292 1.124931
0.18464257 -0.21516901 1.1254827
0.19376096 -0.21560042 1.1263334
0.20285222 -0.2168324 1.127
0.17696561 -0.20599777 1.127
0.18441392 -0.20550847 1.1270001
0.19082928 -0.20746568 1.1270001
0.21861215 -0.29403624 1.131
0.22357695 -0.291531 1.13425
0.21835025 -0.28742358 1.131
0.22516063 -0.28571737 1.1334709
0.23090084 -0.28623798 1.138
0.22784373 -0.27989423 1.131
0.23209943 -0.26090726 1.131
0.23389857 -0.25422713 1.1328336
0.24223375 -0.25109595 1.1340001
0.22647908 -0.24137671 1.1332858
0.23546354 -0.24556683 1.1312144
0.24237999 -0.24659787 1.1327143
0.21832915 -0.23349099 1.1318572
0.22480449 -0.23491593 1.1356959
0.234207 -0.23729047 1.1356875
0.24094486 -0.23699625 1.1356667
0.21576957 -0.22483523 1.1323334
0.22349931 -0.22419682 1.1380002
0.12865314 -0.21311246 1.131
0.13504244 -0.21431315 1.1341252
0.14515333 -0.21471946 1.1348503
0.15405557 -0.21257009 1.1342942
0.164115 -0.21177934 1.1317501
0.17186488 -0.21114828 1.131
0.18757825 -0.21114828 1.131
0.19690804 -0.21262141 1.131
0.20597187 -0.21415675 1.1313336
0.21499893 -0.21507852 1.1350873
0.2221956 -0.21471377 1.1380002
0.15661666 -0.2077615 1.1375556
0.16519803 -0.20564812 1.1352906
0.17365764 -0.2037916 1.1316001
0.18701705 -0.20273042 1.131
0.19602558 -0.20525725 1.132435
0.20550495 -0.2052789 1.1347781
0.21430764 -0.20478569 1.1378185
0.22134858 -0.20850247 1.138
0.16784394 -0.19586173 1.1376363
0.17471384 -0.19527544 1.1343752
0.1847402 -0.19476379 1.1326454
0.19487689 -0.19508211 1.1355002
0.20454983 -0.1946682 1.1380004
0.21205986 -0.19783032 1.138
0.16897593 -0.1887392 1.138
0.17546958 -0.18535119 1.1380002
0.18470721 -0.18470716 1.1375203
0.19455586 -0.18484123 1.1373336
0.2045498 -0.18478654 1.1380004
0.21104346 -0.18563354 1.138
0.17754002 -0.1781988 1.138
0.18544534 -0.17537545 1.1380002
0.19353886 -0.17561075 1.1380002
0.20454982 -0.17688125 1.1380002
0.2104788 -0.17786941 1.138
0.1866217 -0.16587029 1.1380002
0.19170371 -0.1650233 1.1380001
0.1920331 -0.15843552 1.138
0.22906807 -0.29253283 1.1420001
0.23898445 -0.25782555 1.1420001
0.24295099 -0.25485063 1.1420001
0.22906807 -0.23105136 1.1420001
0.23542081 -0.2330091 1.1425716
0.24224184 -0.23330438 1.1433334
0.22873752 -0.22444044 1.1420001
0.23521824 -0.22529022 1.1429601
0.24362525 -0.22537136 1.1440001
0.13845228 -0.21189938 1.1430001
0.14468136 -0.21176323 1.1428001
0.22780599 -0.21482457 1.1420001
0.2343794 -0.21763587 1.1453334
0.24280685 -0.21991932 1.146
0.14801089 -0.20910421 1.1440001
0.15527576 -0.20464246 1.1446667
0.16092475 -0.20065968 1.1440001
0.21915171 -0.20229387 1.1420001
0.22534418 -0.20488219 1.1432174
0.16380434 -0.19501181 1.1441177
0.21578014 -0.19455913 1.1420001
0.22384566 -0.19466433 1.1441053
0.16675615 -0.18454327 1.1440953
0.17206858 -0.1819919 1.1428001
0.19535244 -0.18146951 1.1420001
0.21650735 -0.18510553 1.1420001
0.22290464 -0.18409535 1.146
0.1681736 -0.1781247 1.146
0.17491278 -0.17499043 1.1435386
0.18196534 -0.1730406 1.1420001
0.19679481 -0.17461821 1.1420001
0.20526882 -0.17254479 1.1420001
0.21586274 -0.17490129 1.1426401
0.22224124 -0.17447597 1.146
0.17696705 -0.16597661 1.1445882
0.18263413 -0.16401175 1.1426156
0.19733569 -0.16560332 1.1420001
0.20544955 -0.165396 1.142154
0.21356884 -0.16527335 1.1445882
0.1781247 -0.15722738 1.146
0.18506134 -0.15577802 1.1437778
0.19441235 -0.15493096 1.144087
0.2048651 -0.15553169 1.1446667
0.21262185 -0.15689568 1.146
0.18757823 -0.14628118 1.146
0.1932172 -0.1457836 1.146
0.20267074 -0.1482714 1.146
0.23928402 -0.27132204 1.153
0.24552707 -0.27295306 1.1556665
0.23928402 -0.2673173 1.153
0.24438678 -0.26493675 1.1546248
0.25016075 -0.26121205 1.1570001
0.24397345 -0.25897044 1.1515
0.13798295 -0.21097592 1.1515
0.14279741 -0.21070109 1.1500001
0.23645237 -0.21355134 1.1504613
0.24143472 -0.21662919 1.1517999
0.13864332 -0.20997429 1.1570001
0.14560096 -0.20568633 1.1532499
0.15308206 -0.20202895 1.1503751
0.23525624 -0.20465623 1.1511738
0.2412864 -0.20724599 1.153
0.14856055 -0.19875021 1.156
0.155212 -0.19522755 1.1519998
0.16117135 -0.19312602 1.1500001
0.22867559 -0.19272657 1.1500001
0.2349622 -0.19496551 1.1514398
0.24202308 -0.19389519 1.1546
0.15619424 -0.18523538 1.1530998
0.16177051 -0.18473794 1.15
0.22785595 -0.18488094 1.1508999
0.23460528 -0.1854741 1.1545999
0.24091788 -0.18827359 1.1570001
0.15634516 -0.17538996 1.1541998
0.16463478 -0.174623 1.1502498
0.17125705 -0.17225564 1.1500001
0.22716083 -0.17486882 1.1517142
0.23505072 -0.17578471 1.1567998
0.15778667 -0.1659673 1.1551538
0.16491807 -0.16492054 1.1510798
0.17290854 -0.16353723 1.1499999
0.21835691 -0.16410053 1.1500001
0.2250593 -0.16504095 1.1519198
0.2349322 -0.16598068 1.1569998
0.24815144 -0.16576917 1.1570001
0.15974121 -0.15873656 1.1570001
0.16517557 -0.15516596 1.1528798
0.17442411 -0.15453704 1.1501303
0.18194188 -0.15198438 1.1500001
0.19805236 -0.15145181 1.1500001
0.203711 -0.15128538 1.1500001
0.21556638 -0.15406533 1.1501577
0.22423741 -0.15516374 1.1528499
0.23266783 -0.15631355 1.1569998
0.16572866 -0.14576112 1.1549128
0.17489715 -0.14491294 1.1509598
0.1840722 -0.14441417 1.1499999
0.19557124 -0.14346844 1.1504614
0.20515865 -0.14443518 1.1514999
0.2151217 -0.14507957 1.1522799
0.22446258 -0.14529684 1.1539999
0.23082101 -0.14642943 1.1570001
0.16835044 -0.13822795 1.1563333
0.17544967 -0.13538474 1.1535
0.18487163 -0.13490514 1.1508398
0.19493008 -0.13494942 1.1511998
0.20530085 -0.1351971 1.15332
0.21491739 -0.1356151 1.1552855
0.22270001 -0.13616514 1.1569998
0.17800516 -0.1263085 1.1559998
0.18564744 -0.12560792 1.1540433
0.19540411 -0.12525527 1.1539998
0.20592771 -0.1255648 1.1568397
0.2145839 -0.12617369 1.1569998
0.22002091 -0.12960136 1.1570001
0.17983444 -0.11855008 1.1570001
0.18921129 -0.11888496 1.1570001
0.19515555 -0.11880125 1.1570001
0.20595565 -0.11955474 1.1570001
0.21198362 -0.11955474 1.1570001
0.24885565 -0.2802155 1.1650001
0.24900936 -0.26816392 1.161
0.25102562 -0.26614767 1.161
0.13609824 -0.21070021 1.161
0.13817383 -0.2055704 1.1643333
0.14230855 -0.20353937 1.1623334
0.14548044 -0.19591077 1.1664739
0.15105672 -0.19310981 1.1623334
0.24582084 -0.19119398 1.1650001
0.14815088 -0.18569499 1.1685998
0.15147901 -0.18480651 1.1630001
0.24512033 -0.18355554 1.163353
