# .PCD v0.7 - Point Cloud Data file format
VERSION 0.7
FIELDS x y z
SIZE 4 4 4
TYPE F F F
COUNT 1 1 1
WIDTH 1462
HEIGHT 1
VIEWPOINT 0 0 0 1 0 0 0
POINTS 1462
DATA ascii
-0.29557061 -0.24406037 1.177
-0.28514591 -0.24324276 1.177
-0.33011517 -0.23608856 1.177
-0.31171864 -0.23608854 1.177
-0.30507547 -0.23574787 1.177
-0.2953662 -0.23506653 1.177
-0.2848734 -0.23431705 1.177
-0.27819613 -0.23363569 1.177
-0.33726937 -0.22280219 1.177
-0.31444407 -0.22995639 1.177
-0.30558646 -0.22995639 1.177
-0.2953662 -0.22878836 1.177
-0.28437936 -0.22701806 1.177
-0.27681246 -0.22492488 1.177
-0.28173915 -0.2183734 1.177
-0.27594766 -0.21701069 1.177
-0.28185841 -0.27153391 1.189
-0.2756637 -0.27153391 1.189
-0.25176993 -0.27418879 1.189
-0.24606916 -0.27377653 1.1867778
-0.23826389 -0.27162629 1.1858
-0.2023599 -0.27359882 1.189
-0.19410029 -0.27153391 1.189
-0.18274336 -0.27205014 1.189
-0.33141592 -0.2622419 1.189
-0.3258588 -0.26187396 1.1885
-0.31627336 -0.26120943 1.189
-0.30319569 -0.26224187 1.189
-0.29538637 -0.26297998 1.1886001
-0.28411102 -0.26627782 1.189
-0.27772862 -0.26823008 1.189
-0.26368731 -0.26162243 1.189
-0.25400323 -0.26420876 1.1885554
-0.24467406 -0.26496506 1.1848181
-0.23510686 -0.26495862 1.1866549
-0.22541249 -0.2638647 1.1887499
-0.21578173 -0.26498014 1.1889997
-0.20584439 -0.26533923 1.1889999
-0.19454004 -0.26501647 1.1888179
-0.18480827 -0.26533926 1.1889997
-0.35235837 -0.25404048 1.1876668
-0.34969607 -0.25534993 1.1810001
-0.33344552 -0.25371122 1.1874001
-0.32454425 -0.25470334 1.1858693
-0.31433025 -0.25557804 1.1860527
-0.30432746 -0.25435641 1.1872855
-0.29473159 -0.25537097 1.1867999
-0.28452602 -0.25364476 1.1858001
-0.27651799 -0.25287312 1.1886364
-0.26486522 -0.2547248 1.188478
-0.25450817 -0.25450966 1.1858332
-0.24485976 -0.25478268 1.1845294
-0.23538776 -0.25444043 1.1846521
-0.22522274 -0.25401932 1.1843599
-0.21548775 -0.25467074 1.1873997
-0.20542982 -0.25498101 1.1888397
-0.195002 -0.25484294 1.1881996
-0.18475743 -0.25494695 1.1886797
-0.36445427 -0.24056047 1.189
-0.34403357 -0.24379672 1.1880001
-0.33419389 -0.24473314 1.1842
-0.32411447 -0.24483153 1.1842
-0.31483403 -0.2459376 1.1814209
-0.30585587 -0.24688953 1.1810001
-0.29383639 -0.24461235 1.181
-0.2840521 -0.24569647 1.1816154
-0.27529475 -0.24471146 1.1849999
-0.26467186 -0.2451046 1.186
-0.25502408 -0.24474259 1.18425
-0.24512953 -0.24495886 1.1811665
-0.23516965 -0.24468584 1.1817273
-0.22530679 -0.24485421 1.1847999
-0.21560164 -0.24472952 1.1864544
-0.20519617 -0.24504502 1.1869047
-0.19467987 -0.24480127 1.186818
-0.18475299 -0.24479792 1.1886519
-0.37064895 -0.23023598 1.189
-0.36475417 -0.2335071 1.1884543
-0.35495576 -0.23409043 1.1889999
-0.34527963 -0.23530492 1.1866362
-0.33523777 -0.23435855 1.1814444
-0.32525826 -0.23496716 1.1816399
-0.31539878 -0.23529564 1.181
-0.30389035 -0.23438412 1.1810001
-0.29472917 -0.23634394 1.181
-0.28474763 -0.23825823 1.1810001
-0.27416864 -0.2358505 1.1821429
-0.26453713 -0.23508304 1.1833701
-0.25440544 -0.23494525 1.1825238
-0.24523444 -0.23530589 1.1824999
-0.23490807 -0.23476711 1.184586
-0.22558634 -0.23565248 1.1866921
-0.21491542 -0.23541626 1.1856955
-0.20512432 -0.23491634 1.1874825
-0.19506481 -0.23485754 1.1881427
-0.18559521 -0.23494953 1.1886361
-0.36170104 -0.22541791 1.189
-0.3548317 -0.22543447 1.1878887
-0.34521011 -0.22526947 1.1846
-0.33436176 -0.2248586 1.1829129
-0.32464176 -0.22496571 1.18388
-0.31484941 -0.2252757 1.1831818
-0.30478784 -0.22444506 1.1811665
-0.29478511 -0.22439842 1.1809999
-0.28679866 -0.22367328 1.1810001
-0.27362251 -0.22551717 1.181
-0.26544023 -0.22531717 1.1848665
-0.25443137 -0.22558446 1.1862798
-0.24480751 -0.2252918 1.1857618
-0.23528963 -0.22540063 1.1865999
-0.22476996 -0.22520138 1.1871052
-0.215519 -0.22582872 1.1875597
-0.20575221 -0.22610618 1.189
-0.19513275 -0.22713864 1.189
-0.18790561 -0.2281711 1.189
-0.36187315 -0.21784662 1.189
-0.35389772 -0.21602383 1.1887143
-0.34521982 -0.21509223 1.1861664
-0.33463022 -0.2148554 1.1829129
-0.32494465 -0.21491511 1.1842306
-0.31542981 -0.21511923 1.1853635
-0.30544329 -0.21494102 1.1843598
-0.29491347 -0.21476321 1.1833999
-0.28525195 -0.21431381 1.1830952
-0.27481318 -0.21414663 1.1842499
-0.26570845 -0.2163917 1.1877271
-0.25501472 -0.21681416 1.1889998
-0.24486983 -0.21614081 1.1889997
-0.23483509 -0.21625099 1.1889997
-0.2259341 -0.21733035 1.189
-0.2144051 -0.2199115 1.189
-0.36257577 -0.2053044 1.1881112
-0.35412979 -0.20958702 1.189
-0.34561208 -0.20881267 1.189
-0.33477139 -0.20700592 1.1889999
-0.32513398 -0.20540075 1.1886797
-0.31518981 -0.20539041 1.1886188
-0.30518624 -0.20513649 1.1855453
-0.29508916 -0.20650744 1.1863333
-0.2858662 -0.20872456 1.1885
-0.27772859 -0.20958702 1.189
-0.31076697 -0.19926253 1.189
-0.30508849 -0.19926253 1.189
-0.33141592 -0.18274336 1.189
-0.32935104 -0.18274336 1.189
-0.31385532 -0.18597762 1.1876668
-0.30972147 -0.18624449 1.1850001
-0.17253956 -0.29207 1.197
-0.16559088 -0.29141933 1.1943334
-0.2035521 -0.28144073 1.1960001
-0.19622684 -0.2813623 1.1956667
-0.18501231 -0.28167605 1.197
-0.17524199 -0.28333908 1.197
-0.15071228 -0.28479424 1.197
-0.14388199 -0.28286391 1.1969999
-0.13754661 -0.28236899 1.197
-0.29316583 -0.27037555 1.1930001
-0.28510869 -0.27267757 1.193
-0.27409145 -0.27329782 1.193923
-0.26451468 -0.27385327 1.1946003
-0.25690857 -0.27348331 1.193
-0.23431283 -0.27423137 1.194
-0.22504626 -0.27275419 1.1943333
-0.21405885 -0.27421829 1.1945001
-0.20614842 -0.27590048 1.193
-0.19558437 -0.27593499 1.1935717
-0.18551883 -0.27613261 1.1935713
-0.17598511 -0.27447149 1.1964003
-0.1663032 -0.27128211 1.197
-0.15323651 -0.27543971 1.1970003
-0.14437693 -0.27583566 1.1970003
-0.13764559 -0.27573666 1.1969999
-0.11485314 -0.27232149 1.197
-0.36110339 -0.26045227 1.1950001
-0.357393 -0.26001635 1.1930001
-0.32320756 -0.26416004 1.1930001
-0.31368488 -0.2659401 1.1954
-0.30732292 -0.26379955 1.1934444
-0.29399461 -0.26643905 1.193
-0.28503785 -0.26240698 1.193
-0.27451932 -0.26416007 1.1930003
-0.26463813 -0.2665506 1.193
-0.2569086 -0.26830372 1.1930001
-0.22479501 -0.26830372 1.1930001
-0.2102921 -0.26623186 1.1930001
-0.20407656 -0.26563993 1.193
-0.19993289 -0.26726779 1.1930001
-0.17544727 -0.26472798 1.1955603
-0.1650636 -0.26472992 1.1955603
-0.15486982 -0.26504573 1.1970004
-0.14407995 -0.26445177 1.1970003
-0.13530476 -0.26431203 1.1970003
-0.12654634 -0.26400635 1.197
-0.11527836 -0.26476228 1.1970004
-0.10552596 -0.26417044 1.1970003
-0.36274886 -0.2515336 1.197
-0.35564229 -0.25329801 1.195154
-0.30974057 -0.25794449 1.1930001
-0.28695029 -0.25794449 1.1930001
-0.27493361 -0.25607985 1.193
-0.1753767 -0.25460574 1.1950873
-0.16517121 -0.25468287 1.1963336
-0.15486982 -0.25465184 1.1970004
-0.14447592 -0.25465178 1.1970004
-0.13512136 -0.25465178 1.1970003
-0.12742981 -0.25534472 1.1970003
-0.11641224 -0.25880936 1.197
-0.10705769 -0.25776997 1.197
-0.36266163 -0.24540967 1.1950001
-0.35488489 -0.24486235 1.1931907
-0.34841502 -0.24689467 1.1930001
-0.18128629 -0.24551344 1.1930001
-0.17509745 -0.24498615 1.1931821
-0.16498595 -0.24450897 1.1962004
-0.15486984 -0.24425784 1.1970004
-0.14447592 -0.24425787 1.1970004
-0.13535234 -0.24471977 1.1970003
-0.12803458 -0.24558069 1.1970001
-0.11329406 -0.24217904 1.197
-0.10757738 -0.24165934 1.197
-0.36516237 -0.23774403 1.1930001
-0.357393 -0.23929791 1.1930001
-0.18180425 -0.23308238 1.1930001
-0.1753978 -0.23559296 1.1952404
-0.16543487 -0.23511253 1.1968098
-0.15486982 -0.23490326 1.1970003
-0.14525546 -0.23542295 1.1970003
-0.13720015 -0.23802146 1.197
-0.10913648 -0.23802146 1.197
-0.37203422 -0.22806458 1.1956667
-0.3673884 -0.22566615 1.1934999
-0.35946482 -0.22065133 1.1930001
-0.22065133 -0.22065133 1.1930001
-0.21339986 -0.22065133 1.1930001
-0.20531967 -0.2223088 1.193
-0.19578919 -0.2227232 1.1930001
-0.18526638 -0.22456366 1.1936959
-0.17591761 -0.22736767 1.1970003
-0.16549481 -0.2268191 1.1970003
-0.15603916 -0.22671805 1.1970003
-0.14759409 -0.2297063 1.197
-0.36399254 -0.2152281 1.1932857
-0.35816994 -0.21314089 1.193
-0.27286178 -0.21112084 1.1930001
-0.26383492 -0.21160571 1.1934
-0.25483677 -0.21132803 1.193
-0.24492148 -0.21088406 1.193
-0.23385933 -0.21132803 1.193
-0.22369818 -0.21333894 1.1930001
-0.21449244 -0.21449214 1.1933203
-0.20499238 -0.21536978 1.194905
-0.19459784 -0.21815746 1.197
-0.18709111 -0.21931235 1.197
-0.36309057 -0.20407657 1.1930001
-0.35548377 -0.20569697 1.1946003
-0.34385437 -0.20495437 1.1937273
-0.33667457 -0.20304064 1.193
-0.31595612 -0.20304066 1.1930001
-0.29602611 -0.20349507 1.1943336
-0.28498694 -0.20378704 1.1946367
-0.27610111 -0.20591442 1.1956668
-0.26381174 -0.20702891 1.1948183
-0.2546331 -0.20614694 1.193923
-0.24480926 -0.20559871 1.1948949
-0.23512763 -0.20594154 1.1953533
-0.22579385 -0.20694515 1.1957694
-0.21712886 -0.20763078 1.1964285
-0.20683961 -0.20891841 1.197
-0.33299747 -0.19656573 1.1941429
-0.32502323 -0.19534335 1.1946927
-0.3153891 -0.19607711 1.194778
-0.30636731 -0.19715248 1.1950001
-0.2957257 -0.19922867 1.1950001
-0.28791243 -0.19800475 1.197
-0.23178509 -0.19644566 1.197
-0.33308834 -0.18608733 1.1950001
-0.32365268 -0.18746328 1.1954
-0.31554174 -0.1891593 1.1930001
-0.30766875 -0.18750183 1.1930001
-0.18326175 -0.29007718 1.2060001
-0.17329675 -0.29080138 1.2046667
-0.16712049 -0.29178259 1.2044001
-0.15498708 -0.2921716 1.2060002
-0.12461799 -0.29133385 1.2060001
-0.11309868 -0.2911244 1.2060001
-0.23143342 -0.28169951 1.2060001
-0.22398657 -0.28286305 1.2060002
-0.21572526 -0.28379396 1.2060002
-0.20979108 -0.28180891 1.202
-0.19331227 -0.28591481 1.2050002
-0.18464491 -0.28548443 1.2042857
-0.17362048 -0.28505242 1.2030666
-0.16692528 -0.2846317 1.2060001
-0.15530488 -0.28323191 1.2036
-0.14560127 -0.28285265 1.202
-0.13297205 -0.28118268 1.202
-0.12267577 -0.28485078 1.2056365
-0.11442282 -0.28449112 1.2049092
-0.10925891 -0.28588834 1.2060001
-0.082031451 -0.28658649 1.2060001
-0.07854075 -0.28379393 1.2060001
-0.30581486 -0.27032781 1.202
-0.23379701 -0.2786777 1.202
-0.22440341 -0.2786777 1.202
-0.1714948 -0.27761069 1.2028
-0.16527182 -0.2758404 1.2037778
-0.15760423 -0.27502462 1.202
-0.14647104 -0.27137154 1.202
-0.13325039 -0.27415481 1.2019999
-0.12441164 -0.2745637 1.2030908
-0.114716 -0.27552935 1.2025713
-0.10578261 -0.27454272 1.2039045
-0.095793366 -0.27272323 1.2056669
-0.07854075 -0.27332181 1.2060001
-0.36547634 -0.26564229 1.2060001
-0.31207728 -0.26824033 1.202
-0.3068586 -0.26824033 1.202
-0.14925435 -0.26615286 1.202
-0.13046709 -0.26406538 1.202
-0.12490047 -0.26510909 1.2019999
-0.10124246 -0.26615286 1.202
-0.095010944 -0.26519838 1.2023998
-0.084912337 -0.2629616 1.205143
-0.076446332 -0.26215157 1.2060002
-0.36352515 -0.25331542 1.2030001
-0.12271359 -0.25467178 1.2019999
-0.11486596 -0.25549579 1.2019999
-0.10523589 -0.25544325 1.2019998
-0.094943397 -0.25514036 1.2033792
-0.084929146 -0.25454873 1.2052306
-0.076827139 -0.25561446 1.2060002
-0.13255456 -0.24110317 1.202
-0.12297451 -0.24478742 1.2024443
-0.1149952 -0.24564648 1.2019999
-0.10493642 -0.24581334 1.2021903
-0.096432969 -0.24586014 1.2055
-0.085522152 -0.24818878 1.2060001
-0.14246248 -0.23256472 1.2025715
-0.1346419 -0.23494884 1.2044346
-0.12444085 -0.2361699 1.205238
-0.115256 -0.23573573 1.2042222
-0.10608803 -0.23719007 1.2041539
-0.09948495 -0.23981109 1.2060001
-0.372614 -0.22544713 1.202
-0.18213205 -0.22075032 1.202
-0.17485233 -0.22248194 1.2037143
-0.16486731 -0.22232704 1.2032
-0.15455811 -0.22348239 1.2026665
-0.14601313 -0.22721739 1.204
-0.13383344 -0.22892013 1.2060001
-0.20199136 -0.21243568 1.2028
-0.19521739 -0.21412989 1.2022352
-0.18540052 -0.21476658 1.2037141
-0.17446519 -0.21802914 1.2060001
-0.16503987 -0.21706885 1.2037778
-0.15812524 -0.21703228 1.2028
-0.36198559 -0.20141339 1.2060001
-0.3549819 -0.20182468 1.2053335
-0.34554592 -0.20118918 1.2046666
-0.28076518 -0.20352866 1.202
-0.27371082 -0.20282635 1.2028
-0.26548621 -0.20306993 1.2037144
-0.25488654 -0.20188576 1.2046667
-0.24555252 -0.20166348 1.2033335
-0.23565039 -0.20156553 1.2040001
-0.22491144 -0.20285811 1.2054667
-0.21427266 -0.20635319 1.2045715
-0.20455927 -0.20711605 1.2046666
-0.19468324 -0.20839478 1.2046666
-0.18891634 -0.20979108 1.202
-0.35640046 -0.19582827 1.2060002
-0.34469205 -0.19491296 1.2057894
-0.33653051 -0.19338951 1.202
-0.32460213 -0.19413503 1.202
-0.31346604 -0.1940013 1.2033334
-0.30474591 -0.19567382 1.2050587
-0.29534537 -0.19549961 1.204
-0.28539476 -0.19537953 1.2025999
-0.27565211 -0.19730254 1.2045455
-0.26504141 -0.19844221 1.2037144
-0.25237763 -0.19792269 1.2060001
-0.24369314 -0.19771546 1.2033334
-0.23606336 -0.19805062 1.2046667
-0.22857834 -0.19935371 1.202
-0.34414887 -0.18933547 1.2046667
-0.3345176 -0.18839447 1.202
-0.32773334 -0.18682887 1.202
-0.30306256 -0.18912615 1.2060001
-0.29505792 -0.18774785 1.2056669
-0.12586492 -0.30117562 1.2113334
-0.11467244 -0.30135125 1.2160002
-0.10857814 -0.30043465 1.2140001
-0.23191448 -0.2920014 1.2140001
-0.22664368 -0.2920014 1.2140001
-0.19227505 -0.29103929 1.21
-0.18441005 -0.29207364 1.2108001
-0.17861617 -0.29314065 1.21
-0.16298965 -0.29285583 1.2110001
-0.15865318 -0.29314065 1.21
-0.13376917 -0.29496658 1.2115386
-0.12536582 -0.29606444 1.2111051
-0.11466652 -0.29504934 1.2114738
-0.10492127 -0.29507253 1.2102103
-0.095929824 -0.29463699 1.2113998
-0.085444935 -0.29430622 1.2148
-0.074252345 -0.29107115 1.2160001
-0.063862734 -0.29108706 1.2190001
-0.054588277 -0.29199433 1.219
-0.045691844 -0.29302761 1.219
-0.03747084 -0.29193383 1.2190001
-0.2435102 -0.28567648 1.2140001
-0.23446366 -0.28627196 1.2114999
-0.22572847 -0.28774399 1.2105001
-0.16431627 -0.28507483 1.2104443
-0.15725228 -0.28718677 1.21
-0.13453087 -0.28735238 1.2104001
-0.12717153 -0.28482202 1.2103637
-0.11512487 -0.28533557 1.21
-0.10471811 -0.28496867 1.2099999
-0.095624276 -0.28477341 1.2101598
-0.085500836 -0.28439653 1.2101815
-0.074769981 -0.2846539 1.2112727
-0.06435696 -0.28485805 1.2150002
-0.054816149 -0.28462231 1.2140001
-0.045538004 -0.28492972 1.2142383
-0.034855336 -0.28521103 1.2165
-0.024631767 -0.28366315 1.2182857
-0.016583141 -0.28332472 1.219
-0.16495728 -0.27843109 1.21
-0.094824165 -0.27764308 1.21
-0.085105345 -0.27422839 1.2099997
-0.07442341 -0.27422833 1.2099997
-0.064387493 -0.27493492 1.2123332
-0.055048618 -0.27484909 1.2136192
-0.045328736 -0.27513495 1.2140003
-0.034787174 -0.27513486 1.2140003
-0.024546841 -0.27511233 1.2155218
-0.016406726 -0.27626806 1.219
-0.083844528 -0.26750398 1.21
-0.073697932 -0.26552269 1.21
-0.064078793 -0.26449341 1.2117144
-0.055048618 -0.2647098 1.2136192
-0.04532874 -0.26459336 1.2140003
-0.034787171 -0.26459333 1.2140003
-0.024551939 -0.26533791 1.2157393
-0.015877476 -0.26780009 1.2190001
-0.072647236 -0.25441548 1.21
-0.06434644 -0.25537467 1.2132083
-0.054916222 -0.25451827 1.2162502
-0.045470275 -0.2548435 1.2178
-0.035656434 -0.25668475 1.2179285
-0.02646246 -0.25933209 1.2190001
-0.093510814 -0.24247438 1.21
-0.085009828 -0.24423614 1.2099998
-0.07466618 -0.24503274 1.21112
-0.065370224 -0.24593216 1.2160456
-0.057511743 -0.24804145 1.2190001
-0.045515429 -0.24768862 1.2190001
-0.13763952 -0.23009966 1.21
-0.12526481 -0.23126708 1.21
-0.11387584 -0.23117292 1.2115
-0.10486738 -0.23301876 1.2111429
-0.095649287 -0.23439369 1.2104796
-0.085309036 -0.23485701 1.2128801
-0.075341806 -0.23575765 1.213905
-0.068802394 -0.23816213 1.2190001
-0.15194792 -0.22135033 1.2110001
-0.14470702 -0.22296707 1.2125001
-0.13552342 -0.22423433 1.2107618
-0.1252915 -0.22470042 1.2105713
-0.11482465 -0.22579415 1.213222
-0.10483419 -0.2263647 1.2151766
-0.094470114 -0.22562246 1.215625
-0.085504003 -0.22580898 1.2170953
-0.078328878 -0.22757715 1.2190001
-0.18143392 -0.2126182 1.2134001
-0.17542982 -0.21414565 1.2134168
-0.16596827 -0.21336131 1.2130001
-0.15535803 -0.217749 1.2138
-0.14395578 -0.21910916 1.2190001
-0.13474676 -0.21866667 1.2142
-0.35302961 -0.20278189 1.21
-0.19210334 -0.20789486 1.21225
-0.18807232 -0.20908599 1.21
-0.35411111 -0.19664191 1.2110001
-0.30574888 -0.19311561 1.21
-0.29839408 -0.19332574 1.21
-0.27072608 -0.19577734 1.21
-0.26510176 -0.19619341 1.2115
-0.25800785 -0.19744822 1.2108001
-0.30574885 -0.18807232 1.21
-0.29804385 -0.18316913 1.21
0.0095890053 -0.32069895 1.2270001
-0.06339398 -0.31057724 1.2270001
-0.05604241 -0.31089687 1.2270001
-0.033028796 -0.31217539 1.2270001
0.007724477 -0.31510535 1.2270001
0.014972307 -0.31453061 1.2269999
0.021042537 -0.31510535 1.2270001
-0.09132956 -0.300538 1.223
-0.085097253 -0.30173978 1.2250001
-0.075291455 -0.3018761 1.2270001
-0.064064763 -0.30373329 1.2267144
-0.05454189 -0.30478168 1.2265788
-0.045637667 -0.3035762 1.2266924
-0.034935381 -0.30454901 1.2269999
-0.026054973 -0.30345809 1.2270001
-0.014916231 -0.30152094 1.2270001
-0.0053272252 -0.30152094 1.2270001
0.006310713 -0.30381572 1.2270001
0.01299843 -0.30535653 1.2270001
-0.075236 -0.29699802 1.2252856
-0.065007366 -0.2962476 1.2248822
-0.055576518 -0.29699808 1.223
-0.044794213 -0.29808608 1.2241429
-0.034217022 -0.29620209 1.2237999
-0.024463208 -0.29571369 1.225
-0.014897561 -0.29583466 1.2255
-0.0051203137 -0.29575807 1.2262379
0.0053272247 -0.29512829 1.2269998
0.011719896 -0.29512829 1.2270001
0.024691058 -0.29271686 1.2266365
0.032602616 -0.29214504 1.2270001
-0.023097886 -0.28885633 1.223
-0.013419461 -0.28682891 1.2229999
-0.0053115259 -0.28546846 1.2239597
0.0053272261 -0.28447378 1.2269998
0.012937548 -0.28416941 1.2270001
0.026152946 -0.28649938 1.2265557
0.034626961 -0.28260928 1.2270001
0.044748694 -0.28127748 1.2270001
0.052815635 -0.28234294 1.2270001
-0.3640916 -0.27381939 1.2270001
-0.013419461 -0.27389216 1.2229999
-0.0054878667 -0.2749109 1.2231663
0.0053263572 -0.27483952 1.2267998
0.011719896 -0.27488482 1.2270001
0.043683246 -0.27595025 1.2270001
0.052206807 -0.27595025 1.2270001
-0.36431924 -0.26858723 1.2250001
-0.021239433 -0.26124504 1.223
-0.014926239 -0.26436394 1.2232103
-0.0053163888 -0.26480955 1.2247597
0.0049564848 -0.26553583 1.2268258
0.011719896 -0.26636127 1.2270001
-0.034079637 -0.25361815 1.2229999
-0.024472443 -0.25430539 1.2253997
-0.014909109 -0.25451475 1.2263998
-0.0058115185 -0.25512564 1.2269998
0.0031963352 -0.2580508 1.2270001
-0.062352914 -0.24258466 1.2230002
-0.054355513 -0.24479616 1.2248945
-0.045510743 -0.24584535 1.2246
-0.035118528 -0.24689826 1.2255999
-0.024742 -0.24730164 1.2270001
-0.014916231 -0.2482487 1.2270001
-0.07300587 -0.23207264 1.2235715
-0.064825132 -0.2362375 1.2261109
-0.054604057 -0.23892604 1.2270001
-0.046879582 -0.23972513 1.2270001
-0.12561831 -0.22143108 1.2260001
-0.10377435 -0.22395656 1.2270001
-0.095331132 -0.22325718 1.2243334
-0.076583527 -0.2286973 1.2250001
-0.067123041 -0.22907068 1.2270001
-0.18604535 -0.21156275 1.2243334
-0.16274624 -0.21274109 1.2250001
-0.15456443 -0.21628642 1.2255001
-0.14551681 -0.21788198 1.2255001
-0.13509792 -0.21912219 1.2250001
-0.12465707 -0.21841623 1.2270001
-0.092087612 -0.2188386 1.2246001
-0.088143654 -0.21982814 1.223
-0.19040379 -0.2084851 1.2250001
-0.18397921 -0.20740989 1.2264999
-0.17458583 -0.20696451 1.2242309
-0.16673285 -0.20785905 1.2247778
-0.13744241 -0.2056309 1.2270001
-0.12678796 -0.2056309 1.2270001
-0.00321978 -0.321978 1.2360001
0.0074885068 -0.32200581 1.2320001
0.02575824 -0.32090476 1.2360001
-0.080234006 -0.31130794 1.2320001
-0.07488507 -0.31130794 1.2320001
-0.06846635 -0.31237772 1.2320001
-0.051349759 -0.31237772 1.2320001
-0.04515681 -0.31396732 1.2333335
-0.034925386 -0.3145802 1.2320002
-0.024618987 -0.3147229 1.2328002
-0.014863634 -0.31286818 1.2351429
-0.0048585809 -0.31466928 1.2348237
0.0042164223 -0.31526893 1.2322356
0.013907227 -0.31130794 1.2320001
0.026184469 -0.31418332 1.2342857
0.03639327 -0.31192839 1.2360001
0.04239377 -0.3128553 1.2360001
0.066542119 -0.31017214 1.2360001
-0.093071438 -0.3048892 1.2320001
-0.083086759 -0.30679104 1.2320002
-0.074982323 -0.30722329 1.2320002
-0.067396559 -0.30809855 1.2320002
-0.043326363 -0.30863348 1.2320001
-0.039582107 -0.30916837 1.2320001
-0.022703253 -0.30750424 1.2320002
-0.014977014 -0.30595899 1.2320002
-0.0051706354 -0.30649388 1.2320002
0.0035150133 -0.30764008 1.2320002
0.015893975 -0.30458355 1.2320002
0.024426797 -0.30471089 1.2320002
0.035380587 -0.30446178 1.2346002
0.04486227 -0.30459121 1.2360001
0.055502873 -0.3037326 1.2360001
0.065468863 -0.3048059 1.2360001
0.071908422 -0.30158606 1.2360001
0.016046802 -0.29526114 1.2320002
0.0240702 -0.29740071 1.2320002
0.036174998 -0.29603222 1.2325336
0.044975981 -0.29556352 1.2332503
0.0545942 -0.29545495 1.2328002
0.065320536 -0.29555151 1.2332003
0.074913546 -0.294431 1.2360001
0.080494501 -0.29085347 1.2360001
0.0160468 -0.28579766 1.2320002
0.023849951 -0.28487793 1.2320002
0.035554677 -0.28651404 1.2320002
0.044931043 -0.28777263 1.2320002
0.055153444 -0.28646511 1.2320002
0.065256976 -0.28563306 1.2320002
0.075058915 -0.28471592 1.2338949
0.082104392 -0.284235 1.2360001
-0.37207183 -0.27450728 1.2320001
-0.3690764 -0.27493519 1.2320001
0.0160468 -0.27493522 1.2320002
0.024605094 -0.27493522 1.2320002
0.035302959 -0.27493522 1.2320002
0.045119833 -0.27455765 1.2320002
0.054648265 -0.27484608 1.2320002
0.065256976 -0.27493522 1.2320002
0.074701756 -0.27465618 1.2328891
0.082971253 -0.27483717 1.2360001
0.0096280798 -0.26316753 1.2320001
0.015798891 -0.26442143 1.2335002
0.024642326 -0.26464608 1.2339202
0.035353113 -0.26461095 1.2337602
0.044960219 -0.26440614 1.2328002
0.054640885 -0.26480594 1.2338334
0.065340616 -0.26457661 1.2336003
0.074982665 -0.26457739 1.2336001
0.083341278 -0.26504794 1.2357779
-0.001782978 -0.25211307 1.2320001
0.0058838259 -0.25482327 1.2320002
0.014895775 -0.2552053 1.234889
0.024774419 -0.25454149 1.2360001
0.035417579 -0.25436261 1.2360001
0.045069799 -0.2543208 1.2358
0.054729443 -0.2545779 1.2358463
0.065468863 -0.25436261 1.2360001
0.073876068 -0.25561479 1.2360001
0.082947671 -0.25712246 1.2360001
-0.042434875 -0.24141519 1.2320001
-0.035302959 -0.24177179 1.2320002
-0.024490474 -0.24330437 1.2330002
-0.015174993 -0.24486735 1.2327061
-0.0053518871 -0.24624839 1.2330002
0.0050923405 -0.24735174 1.2345002
0.011793124 -0.24765331 1.2346667
0.028119411 -0.24620585 1.2360001
0.035643529 -0.24487276 1.2360001
0.045148473 -0.24491796 1.2360001
0.054962207 -0.24487276 1.2360001
0.064932227 -0.24523994 1.2360001
-0.07167571 -0.23000415 1.2320001
-0.064829074 -0.2317158 1.2320002
-0.054485392 -0.23380193 1.2325457
-0.045508076 -0.23582916 1.2341334
-0.035140868 -0.23812479 1.2346667
-0.02790476 -0.23826373 1.2360001
0.057419412 -0.23880036 1.2360001
0.065611966 -0.23633187 1.2360001
-0.12088589 -0.22251564 1.2320001
-0.11821143 -0.22305053 1.2320001
-0.10340114 -0.22234023 1.2340001
-0.097350597 -0.22144584 1.2320001
-0.073481843 -0.22730188 1.2336
-0.065901294 -0.22742951 1.2340001
-0.054348987 -0.22812332 1.2353334
0.067615382 -0.22753114 1.2360001
-0.1615378 -0.21074797 1.2320001
-0.15506326 -0.21307933 1.2340001
-0.14461976 -0.21371554 1.2326669
-0.13492545 -0.21523587 1.2332002
-0.12540257 -0.21511757 1.232522
-0.11803313 -0.21859308 1.2320001
-0.1044825 -0.21930628 1.2320001
-0.098420382 -0.21823649 1.2320001
-0.18400331 -0.20432925 1.2320001
-0.15240292 -0.20928571 1.2360001
-0.14367835 -0.20789072 1.2325002
-0.13433465 -0.20769145 1.2320002
-0.1268767 -0.2081805 1.2320001
-0.0389187 -0.32107928 1.245
-0.020540426 -0.32324144 1.245
-0.014679176 -0.32369867 1.2455714
-0.0072940001 -0.3248077 1.24375
0.036319409 -0.32257444 1.2460001
0.045888934 -0.32242507 1.2454287
0.053494297 -0.32237497 1.2428571
0.064850174 -0.32202709 1.2445
0.070495643 -0.32211086 1.2490001
-0.041992601 -0.31871307 1.24
-0.015289614 -0.31849772 1.24
-0.0071782223 -0.31548288 1.2399999
0.0290718 -0.3197898 1.24
0.034553353 -0.31685326 1.2399999
0.045846995 -0.3152808 1.2411537
0.055290557 -0.31566215 1.242174
0.06435553 -0.31415763 1.2399999
0.07418073 -0.31357542 1.2458571
0.08108063 -0.31243068 1.245
0.048453003 -0.30902249 1.24
0.053118844 -0.30830467 1.2399999
0.076009564 -0.30464917 1.2428571
0.084882766 -0.30412328 1.2458
0.093172751 -0.30334702 1.2476667
0.078601539 -0.29825515 1.24
0.085238248 -0.29573911 1.2425001
0.094175205 -0.29489198 1.2482945
0.087514989 -0.28553692 1.2416666
0.095440254 -0.28523627 1.2490003
0.10231467 -0.28483799 1.2482001
-0.36931956 -0.27026007 1.24
0.088531896 -0.27469772 1.2416666
0.095500171 -0.27429309 1.2475265
0.10372788 -0.27616236 1.2466472
-0.37080875 -0.26918769 1.245
0.089130081 -0.26379099 1.2416667
0.094264865 -0.26528624 1.2477692
0.016151 -0.25087887 1.24
0.0226114 -0.25087887 1.24
0.077255622 -0.2533015 1.2399999
0.085406989 -0.25431561 1.243
0.092764184 -0.25444093 1.2484287
-0.0226114 -0.24011154 1.24
-0.014462093 -0.24112315 1.243
-0.0053945212 -0.24167237 1.2424999
0.0056990576 -0.24245696 1.2417856
0.015457541 -0.24443753 1.2419444
0.02390348 -0.24377242 1.2399999
0.034814376 -0.24047047 1.2399999
0.045007456 -0.24054225 1.24
0.051324289 -0.24082936 1.24
0.068264887 -0.24269569 1.24
0.075496376 -0.24481097 1.242
0.084269784 -0.24550585 1.2466844
0.090947114 -0.24495299 1.249
-0.043148898 -0.23166776 1.2423749
-0.035537414 -0.23373373 1.2439002
-0.024566736 -0.23407406 1.244261
-0.015171001 -0.23515542 1.2480003
-0.0050348518 -0.23677997 1.2478238
0.0057107923 -0.23562579 1.2473639
0.014961675 -0.23640199 1.2484668
0.025206137 -0.23562609 1.2473639
0.035300352 -0.23488426 1.2450873
0.044940475 -0.2344376 1.2457731
0.054659132 -0.23418103 1.2428263
0.064962909 -0.2331726 1.2399999
0.075766511 -0.23456004 1.2436317
0.084568724 -0.23527057 1.2486002
0.090637259 -0.23441736 1.249
-0.063527271 -0.22719073 1.24
-0.058143601 -0.22719073 1.24
-0.046299536 -0.2293442 1.24
-0.034624793 -0.22829005 1.2460001
-0.024853328 -0.22718261 1.244375
-0.016268225 -0.22883971 1.2490001
0.029282806 -0.22667061 1.2490001
0.034876794 -0.22472987 1.2490003
0.044466484 -0.22450154 1.2490004
0.055201754 -0.22450602 1.2466403
0.065549545 -0.22495025 1.2410868
0.075614952 -0.22466002 1.2438891
0.084594771 -0.22450152 1.2490003
0.09045133 -0.22623679 1.2490001
0.036874644 -0.21690968 1.2490001
0.044948503 -0.21498157 1.2490003
0.055482157 -0.21486646 1.2482386
0.064894542 -0.21523587 1.2456002
0.074504919 -0.2152027 1.2464586
0.083076403 -0.21517441 1.2490002
0.047599625 -0.20618469 1.2490001
0.055311967 -0.20497964 1.2490004
0.065072902 -0.20497966 1.2490003
0.074833825 -0.20497967 1.2490004
0.081341125 -0.20714873 1.2490001
0.048804678 -0.19847235 1.2490001
0.05531197 -0.19521873 1.2490003
0.065072894 -0.1952187 1.2490003
0.074833833 -0.19521871 1.2490003
0.056551453 -0.18716207 1.2490003
0.064901657 -0.18568608 1.2490003
0.074451052 -0.18711646 1.2490003
0.05965016 -0.17895047 1.2490001
0.065072909 -0.17895047 1.2490001
0.10562233 -0.27222255 1.2540001
0.098363072 -0.26278546 1.2540001
0.10422692 -0.26515025 1.2572355
0.098371103 -0.25396103 1.2552501
0.1043305 -0.25582182 1.2586154
0.1104164 -0.25690946 1.2590001
0.096329436 -0.24483506 1.2552499
0.10303709 -0.24543051 1.2589999
-0.0061727893 -0.23251931 1.2545556
0.0027233106 -0.23161815 1.25525
0.015897796 -0.23280469 1.2540001
0.022866691 -0.23193358 1.2540001
0.09660735 -0.23543881 1.2556667
0.10167055 -0.23832452 1.2590001
-0.012703717 -0.22830395 1.2540001
-0.0065449178 -0.22933233 1.2556667
0.0072708447 -0.22933233 1.2556669
0.015821468 -0.22784664 1.2565
0.024676483 -0.22532697 1.2546521
0.031577811 -0.22104467 1.2540001
0.095618948 -0.22490083 1.2550526
0.026303792 -0.21578543 1.2565
0.034307908 -0.21374704 1.2543124
0.040833376 -0.21178912 1.2540001
0.086990215 -0.21330145 1.2540001
0.094827563 -0.21471591 1.2551999
0.10167054 -0.21318018 1.2590001
0.028788434 -0.20807844 1.2590001
0.035329066 -0.20475858 1.2568126
0.043088932 -0.20440021 1.2539999
0.08540009 -0.20440021 1.2539999
0.094647318 -0.20478123 1.2580911
0.10167055 -0.20880726 1.2590001
0.036890447 -0.19515721 1.257
0.044469699 -0.1947615 1.2542082
0.084933415 -0.19491132 1.2539999
0.093205646 -0.19472995 1.2582307
0.037534285 -0.18840027 1.2590001
0.044836883 -0.18513267 1.2566191
0.053949557 -0.18402243 1.2539999
0.068600073 -0.18184464 1.2540001
0.075950086 -0.18266131 1.2540001
0.084933423 -0.18511128 1.2539999
0.093932331 -0.18471025 1.2569413
0.04712389 -0.17554505 1.2579286
0.055351913 -0.17512983 1.2539998
0.065333396 -0.17422239 1.2539999
0.075133421 -0.17531131 1.2539998
0.084933415 -0.1753113 1.2539999
0.093330525 -0.17529924 1.2557647
0.048258368 -0.16663973 1.2589999
0.05562735 -0.16470774 1.2562001
0.065333404 -0.16442241 1.2539999
0.075133421 -0.16442239 1.2539998
0.085035875 -0.16461474 1.2555
0.092398778 -0.16694674 1.2584443
0.056172796 -0.15588549 1.2579286
0.064812876 -0.15458202 1.2556666
0.075301215 -0.15495865 1.2567501
0.085272066 -0.15633214 1.2589999
0.057212461 -0.14904393 1.2590001
0.0655296 -0.14668597 1.2590001
0.074704163 -0.14656593 1.2590001
0.08199238 -0.14977275 1.2590001
0.1085738 -0.26540262 1.263
0.10638039 -0.25333887 1.2629999
0.11131556 -0.25717735 1.263
0.10564926 -0.24310295 1.263
0.1057706 -0.23405841 1.2655001
0.11120572 -0.23121981 1.268
-0.002977391 -0.22777176 1.2637144
0.0059684278 -0.22658588 1.2658571
0.014828312 -0.22317897 1.2650833
0.10525199 -0.22478069 1.2655001
0.11120572 -0.22461353 1.268
0.0095424047 -0.21470411 1.268
0.015827546 -0.2145665 1.2679999
0.021954725 -0.21351755 1.26425
0.10634761 -0.21466812 1.2643335
0.11120572 -0.2169062 1.268
0.0099094203 -0.20809783 1.268
0.014297687 -0.20782286 1.2663335
0.02539473 -0.20508896 1.2658948
0.031804446 -0.20289044 1.263
0.098337889 -0.20142816 1.263
0.10549218 -0.20483148 1.2662352
0.11230677 -0.2025926 1.268
0.028057156 -0.19530554 1.2671666
0.032744478 -0.1947435 1.2629999
0.098860137 -0.19474347 1.2629999
0.10419878 -0.19555382 1.2675833
0.11230677 -0.19928946 1.268
0.028994231 -0.18570988 1.268
0.034713205 -0.18508239 1.2656471
0.040578086 -0.18205303 1.263
0.099434592 -0.1860743 1.263
0.10344791 -0.18488632 1.267375
0.035218291 -0.17499653 1.2674998
0.041674793 -0.17547281 1.263
0.099361464 -0.17481478 1.263
0.10398161 -0.17513271 1.2671666
0.03653473 -0.16545731 1.2679999
0.043688893 -0.16524476 1.2649446
0.09637519 -0.16495723 1.2645385
0.10259753 -0.16485673 1.2679999
0.037655797 -0.1578901 1.268
0.045270875 -0.15525 1.2665416
0.052276272 -0.15280756 1.263
0.077866055 -0.15024859 1.263
0.086013012 -0.15150197 1.2629999
0.094507232 -0.15494193 1.2655001
0.1037186 -0.15469709 1.2679999
0.11230677 -0.1508434 1.268
0.047006223 -0.14559224 1.2679999
0.054684509 -0.14473589 1.2646668
0.062512189 -0.14312001 1.263
0.076221004 -0.14366835 1.263
0.085220419 -0.14457154 1.2630002
0.094413236 -0.14490834 1.2642502
0.10459944 -0.14533818 1.2679999
0.11230676 -0.14533816 1.268
0.048323717 -0.13665213 1.268
0.05502975 -0.13537361 1.2674998
0.064817958 -0.13512446 1.2652001
0.074665383 -0.13505061 1.2645
0.084609531 -0.1351472 1.2654001
0.094635531 -0.13534647 1.2672498
0.10382871 -0.13608938 1.2679999
0.05725443 -0.12882246 1.268
0.064961754 -0.12882246 1.268
0.074871175 -0.12882246 1.268
0.085331112 -0.12717089 1.2679999
0.093344286 -0.12613101 1.268
0.0051544267 -0.22384937 1.2720002
0.0077316402 -0.21869497 1.2720001
0.014358762 -0.21759045 1.2720001
0.11155652 -0.21979949 1.2720001
0.015700394 -0.20322032 1.2733337
0.020985881 -0.20323169 1.2720001
0.11266104 -0.20764977 1.2720001
0.018407105 -0.19582495 1.2770001
0.02286776 -0.19510649 1.2727695
0.10824296 -0.19439554 1.2720002
0.11376556 -0.19439553 1.2720002
0.018850649 -0.18850648 1.2770001
0.024277413 -0.18417743 1.2741054
0.10824297 -0.18445484 1.2720002
0.11394618 -0.18474486 1.274
0.026221678 -0.17499126 1.2740589
0.10861114 -0.17377782 1.2720002
0.11480056 -0.17451873 1.2736669
0.12039268 -0.17340964 1.2720001
0.026931651 -0.16530104 1.2747779
0.032662239 -0.16362676 1.2720002
0.10824297 -0.16457349 1.2720002
0.11478051 -0.16533989 1.2750556
0.02895532 -0.15553972 1.2755715
0.034759589 -0.15408382 1.2723848
0.040867243 -0.15131925 1.2720001
0.10861114 -0.15647368 1.2720001
0.11506159 -0.15502897 1.273154
0.1219748 -0.15302292 1.2770001
0.036217432 -0.14584289 1.2743335
0.041849036 -0.14420122 1.2720002
0.11634278 -0.14395578 1.2720002
0.12444459 -0.14414933 1.2750001
0.13195454 -0.14082544 1.2770001
0.037297908 -0.13479573 1.275889
0.043707434 -0.13443586 1.2720002
0.10802206 -0.13320513 1.2720001
0.11487008 -0.13475144 1.2720001
0.12488697 -0.13483156 1.27275
0.1341245 -0.13452852 1.2765456
0.14082544 -0.13195454 1.2770001
0.037542887 -0.12688546 1.2770001
0.045522343 -0.12522386 1.2733043
0.054980554 -0.12431987 1.272
0.065166675 -0.12370624 1.272
0.075107358 -0.12370625 1.2720001
0.084538259 -0.12226187 1.2720002
0.096093245 -0.12340501 1.2720002
0.10492941 -0.12481077 1.2719998
0.11500857 -0.12495577 1.2735
0.12515974 -0.12655859 1.276737
0.13483758 -0.1275191 1.2770002
0.14082544 -0.12973683 1.2770001
0.046957992 -0.11651375 1.2755002
0.055370718 -0.11627562 1.2753335
0.065472148 -0.11537444 1.2756845
0.075291879 -0.1151485 1.2751253
0.085164614 -0.11502443 1.2737499
0.095334969 -0.11523831 1.2736667
0.10531527 -0.1152074 1.2738422
0.11384314 -0.11716972 1.2770001
0.055812705 -0.10977731 1.2770001
0.067640565 -0.10811401 1.2770001
0.075419433 -0.10712189 1.2758464
0.083657458 -0.10805241 1.2770001
0.013811981 -0.1947709 1.2854376
0.015623489 -0.18596807 1.2854999
0.016748413 -0.17531565 1.286
0.021150865 -0.17365971 1.2820001
0.12133916 -0.17143331 1.2820001
0.015309024 -0.16547972 1.2861178
0.021893 -0.16401197 1.2820001
0.11911276 -0.1625277 1.2820001
0.12339306 -0.16431183 1.2853333
0.015485981 -0.15853174 1.2870001
0.024310382 -0.15501399 1.2843333
0.030056491 -0.15028246 1.2820001
0.11911276 -0.15918808 1.2820001
0.12563881 -0.15565644 1.283923
0.13426505 -0.15150717 1.2870001
0.025969354 -0.14576745 1.286375
0.03182818 -0.14403537 1.2836668
0.12801839 -0.14805605 1.2820001
0.135838 -0.1453138 1.2835623
0.14505735 -0.14505738 1.2870001
0.15235864 -0.14341827 1.2870001
0.025206851 -0.13621633 1.2870001
0.032192715 -0.13515869 1.284857
0.13825986 -0.1373693 1.2820001
0.1453422 -0.13530409 1.2842222
0.15376103 -0.1354859 1.2870001
0.035046995 -0.12471669 1.2836666
0.043414932 -0.12245237 1.2820001
0.12534671 -0.12178445 1.2820001
0.13570961 -0.12336318 1.2819999
0.14500244 -0.12492029 1.2845
0.15310365 -0.12628259 1.2870001
0.037773021 -0.11600117 1.2869999
0.04275601 -0.11562279 1.2845001
0.054546963 -0.11206248 1.2820001
0.065122396 -0.11076374 1.2820001
0.08794307 -0.11020713 1.2820001
0.095067568 -0.11065241 1.2820001
0.10397319 -0.11065241 1.2820001
0.11614717 -0.11331953 1.2836666
0.1248604 -0.11522061 1.2856842
0.13450743 -0.11586225 1.2855002
0.14480193 -0.11861943 1.2870001
0.056356199 -0.10712467 1.2870001
0.064983465 -0.10614183 1.2842728
0.075220741 -0.10257374 1.2820002
0.085435793 -0.10367394 1.2838181
0.094047852 -0.10624219 1.2858461
0.10546988 -0.10530837 1.2862856
0.11510713 -0.10504924 1.2870002
0.12429585 -0.10542175 1.2870001
0.091638692 -0.099461511 1.2870001
0.10579425 -0.098716475 1.2870001
0.11426897 -0.09862335 1.2870001
0.12181241 -0.099461511 1.2870001
0.010089166 -0.19393618 1.291
0.013576779 -0.18322422 1.291
0.014324124 -0.17550164 1.291
0.12622666 -0.17241262 1.291
0.12770727 -0.165843 1.2917143
0.1322298 -0.16261452 1.296
0.017320743 -0.15389375 1.2915556
0.021299349 -0.15245849 1.291
0.13482188 -0.15627377 1.2926668
0.1449375 -0.15354353 1.2922502
0.15512124 -0.15354834 1.2945
0.16505282 -0.15229873 1.296
0.017952576 -0.14587457 1.29225
0.023541387 -0.14416297 1.2910001
0.14909545 -0.14909545 1.291
0.15602536 -0.14624192 1.2910001
0.16489355 -0.14470339 1.2918
0.17516595 -0.14476176 1.2944211
0.18344688 -0.14297654 1.2946365
0.019057313 -0.13788526 1.291
0.025036076 -0.13452221 1.291
0.15806359 -0.1334012 1.291
0.16502571 -0.13434519 1.2910001
0.17487885 -0.1345222 1.2910001
0.18377595 -0.13481991 1.2938572
0.15614185 -0.12411275 1.291
0.16492726 -0.12530927 1.2912383
0.17537963 -0.12489367 1.2933683
0.1819396 -0.12569657 1.2953749
0.034751568 -0.11322285 1.291
0.04147768 -0.11546489 1.291
0.12891711 -0.11098082 1.291
0.13639057 -0.11172816 1.291
0.14535975 -0.11348693 1.2923334
0.1550118 -0.11588462 1.2931052
0.16451384 -0.11764342 1.2938572
0.17195867 -0.11800796 1.2943333
0.058666628 -0.10350736 1.291
0.063337535 -0.10257319 1.291
0.096888013 -0.10297354 1.291
0.10201267 -0.10313369 1.291
0.12667508 -0.10489529 1.291
0.1349187 -0.10486268 1.292389
0.14343818 -0.10668654 1.2955831
0.088560455 -0.099770635 1.291
0.12667507 -0.099770635 1.291
0.13228017 -0.099770635 1.291
0.13591443 -0.16460155 1.3043336
0.15763202 -0.1621682 1.3060001
0.16534352 -0.16262183 1.3060001
0.17464268 -0.16330224 1.3060001
0.18484905 -0.16301873 1.3060001
0.19505545 -0.1621682 1.3060001
0.2046138 -0.16314022 1.3060001
0.13895331 -0.15928794 1.3010001
0.14554308 -0.15873887 1.3026668
0.15525813 -0.15881731 1.3024286
0.16521242 -0.15740091 1.3023639
0.17511404 -0.15581712 1.3030591
0.18505888 -0.15550804 1.3046957
0.19518197 -0.15503757 1.3050476
0.20545088 -0.15555297 1.3059999
0.2136538 -0.15400308 1.306
0.2222725 -0.15082777 1.3060001
0.18730454 -0.14663529 1.3010001
0.1954384 -0.14460181 1.3010004
0.20629877 -0.14508915 1.305375
0.21546827 -0.14515755 1.306
0.2222725 -0.14515756 1.3060001
0.18866019 -0.13556421 1.3010001
0.19485301 -0.13546641 1.3012781
0.2053861 -0.13471834 1.3055832
0.21538104 -0.13687032 1.306
0.2222725 -0.13835329 1.3060001
0.18708646 -0.12491018 1.3018336
0.19460239 -0.12545931 1.3041581
0.20380381 -0.12523079 1.306
0.15733463 -0.11092134 1.3035002
0.1654789 -0.11273147 1.3035002
0.17553507 -0.11530931 1.3029234
0.18444075 -0.11720918 1.304889
0.19505545 -0.11907455 1.3060001
0.15530801 -0.10774838 1.3039169
0.1621682 -0.10773412 1.3060001
0.13826993 -0.17026629 1.3160001
0.14284085 -0.17026629 1.3160001
0.16569537 -0.17026629 1.3160001
0.17398015 -0.17283742 1.3160001
0.18435991 -0.17331356 1.3160001
0.19607444 -0.17324488 1.3147501
0.20544958 -0.17398499 1.313
0.21476848 -0.17425592 1.3129232
0.22485533 -0.17375509 1.3144616
0.23491195 -0.17124577 1.3160001
0.1366062 -0.16848099 1.3110001
0.14502016 -0.1653652 1.3120716
0.15504342 -0.16530406 1.312875
0.16513385 -0.16640161 1.3115555
0.17531128 -0.16848096 1.311
0.18403892 -0.16810152 1.311
0.19466384 -0.1673426 1.3110001
0.20513698 -0.16757028 1.311
0.21567225 -0.16558328 1.3110003
0.22553319 -0.16483776 1.3132224
0.23540166 -0.16455266 1.3160001
0.24431498 -0.1643241 1.3160001
0.25528511 -0.16272429 1.3160001
0.2184073 -0.15595877 1.311
0.22609763 -0.15556316 1.3131429
0.23540168 -0.15541081 1.3160001
0.24454354 -0.1554108 1.3160001
0.25025713 -0.15769628 1.3160001
0.22767702 -0.1445749 1.311
0.2352695 -0.14504491 1.31525
0.24225807 -0.14512628 1.3160001
0.21645579 -0.13189003 1.311
0.22615997 -0.13409679 1.3135
0.23491193 -0.13516822 1.3160001
0.24157242 -0.13507029 1.3160001
0.20832448 -0.12408397 1.3110001
0.2150805 -0.12539916 1.3121766
0.22461875 -0.12729138 1.3147501
0.23197351 -0.12912811 1.3160001
0.16848099 -0.11042335 1.3110001
0.17599434 -0.11087871 1.3110001
0.18485746 -0.11263528 1.3132223
0.19484635 -0.11587805 1.3131876
0.20495448 -0.11766154 1.3132727
0.21140444 -0.1199863 1.3160001
0.16651468 -0.10566282 1.311
0.17508331 -0.10671941 1.3121111
0.18283626 -0.10855903 1.3160001
0.21608128 -0.20226435 1.3260001
0.22375734 -0.20456719 1.3260001
0.18767984 -0.19228548 1.3260001
0.19689111 -0.19458829 1.3260001
0.15544035 -0.1807714 1.3260001
0.1652157 -0.18201675 1.325
0.17454554 -0.18321873 1.3244617
0.18523809 -0.18431959 1.325
0.19555409 -0.18290381 1.3247502
0.20509492 -0.1826349 1.324077
0.21571012 -0.18335299 1.3246667
0.22487991 -0.18365192 1.3242143
0.23373623 -0.1807714 1.3260001
0.24525034 -0.18077138 1.3260001
0.25599682 -0.1807714 1.3260001
0.2648243 -0.18077138 1.3260001
0.1475776 -0.17556484 1.3243335
0.15486199 -0.1741941 1.325
0.16411588 -0.17546433 1.322875
0.17435439 -0.17703088 1.3210001
0.18496476 -0.1769353 1.3210001
0.19423692 -0.17703088 1.3210001
0.20379584 -0.1777956 1.3210001
0.22826661 -0.1777956 1.3210001
0.23541602 -0.1763916 1.3225001
0.24551655 -0.1748329 1.3230588
0.2551311 -0.1746887 1.3234999
0.26451415 -0.17481108 1.3244374
0.27259633 -0.17357506 1.3260001
0.15370716 -0.16861905 1.3210001
0.24891384 -0.16861905 1.3210001
0.25477663 -0.16708963 1.3210001
0.26522395 -0.16473678 1.3230001
0.2724655 -0.16590773 1.3260001
0.24776676 -0.15026596 1.3210001
0.25503153 -0.15447184 1.3209997
0.26418373 -0.15469824 1.3240556
0.27058136 -0.15659177 1.3260001
0.24776678 -0.14453061 1.3210001
0.25519219 -0.14483427 1.3238127
0.26482433 -0.14738049 1.3260001
0.23973729 -0.13305992 1.3210001
0.24719612 -0.13469407 1.324077
0.2533102 -0.1381692 1.3260001
0.21679592 -0.12044218 1.3210001
0.22558163 -0.12286144 1.3223637
0.23475662 -0.12551948 1.3233531
0.24241103 -0.12734094 1.3251668
0.18926628 -0.11126563 1.3210001
0.19500163 -0.11126563 1.3210001
0.20481542 -0.11279505 1.3210001
0.21511127 -0.11502975 1.3247502
0.22394925 -0.11801954 1.3260001
0.18665658 -0.10767577 1.3220001
0.19632484 -0.10779001 1.3241252
0.20540209 -0.1078648 1.3215001
0.2163647 -0.10818207 1.3253751
0.22222213 -0.10823254 1.3260001
0.21652716 -0.20147635 1.3335001
0.22537158 -0.20341231 1.3310002
0.23288873 -0.20504652 1.3360002
0.17636772 -0.19116133 1.3310001
0.18463133 -0.19329949 1.3310002
0.19559397 -0.19369042 1.3310001
0.20605096 -0.19342326 1.3313848
0.21527079 -0.1948496 1.3312778
0.22421582 -0.19532204 1.331
0.23433886 -0.19489571 1.3360003
0.24466355 -0.19393608 1.3353752
0.25507349 -0.19403847 1.3335
0.26459345 -0.19423753 1.3332224
0.27511427 -0.19491374 1.3343334
0.28538296 -0.19373561 1.3360003
0.2946637 -0.19373558 1.3360003
0.30439067 -0.19355711 1.3360003
0.31438529 -0.19280751 1.3360001
0.32250595 -0.1914154 1.3360001
0.15140347 -0.18145302 1.3310001
0.1652725 -0.18492028 1.3310001
0.17683001 -0.18838753 1.3310001
0.18145302 -0.18838753 1.3310001
0.19532205 -0.18838753 1.3310001
0.20572381 -0.18838753 1.3310001
0.21496981 -0.18838753 1.3310001
0.2299946 -0.18723178 1.3310001
0.23604009 -0.18572041 1.3310002
0.24494229 -0.18515144 1.3310001
0.25410029 -0.1854156 1.3310002
0.26466715 -0.18607603 1.3310001
0.27506888 -0.18492025 1.3310001
0.28431493 -0.18492025 1.3310001
0.29444954 -0.18482023 1.3321112
0.30555719 -0.18583485 1.3357224
0.31554541 -0.18561493 1.3360003
0.32385936 -0.18503487 1.3360003
0.33062661 -0.18213466 1.3360001
0.15255922 -0.17914151 1.3310001
0.27651361 -0.17711894 1.3310002
0.28431493 -0.17567426 1.3310001
0.29420301 -0.17593108 1.331
0.30560729 -0.17512725 1.3348097
0.3153685 -0.17507491 1.3352501
0.32482615 -0.1751741 1.3360003
0.33062661 -0.17517409 1.3360001
0.27699515 -0.1637315 1.3310002
0.2843149 -0.16527249 1.331
0.29471672 -0.16527249 1.3309999
0.30565894 -0.16485535 1.3342354
0.31554541 -0.16473325 1.3360003
0.32482612 -0.16473325 1.3360003
0.33236673 -0.16589335 1.3360001
0.27556422 -0.15454051 1.3310002
0.2843149 -0.15487073 1.3310001
0.29471669 -0.15487072 1.331
0.30562341 -0.15512607 1.3331876
0.31415328 -0.15614858 1.3360002
0.32482615 -0.15893279 1.3360001
0.26582289 -0.1433132 1.3310002
0.27506888 -0.14562473 1.3310001
0.28464606 -0.1453471 1.3315883
0.29457253 -0.14504722 1.3343334
0.30427593 -0.14666894 1.3360003
0.25542113 -0.13368195 1.3310002
0.2646406 -0.13549767 1.3318332
0.27528536 -0.1352389 1.3333808
0.28439254 -0.13603516 1.3347502
0.29234353 -0.13805111 1.3360001
0.23808485 -0.12135393 1.3310001
0.24600863 -0.12379055 1.332364
0.25482684 -0.12536263 1.3343335
0.26403728 -0.12691422 1.3360002
0.27416873 -0.12838365 1.3360001
0.2819027 -0.12877037 1.3360001
0.22551413 -0.11410364 1.3318336
0.23392515 -0.11628423 1.3347502
0.24292357 -0.11902557 1.3360001
0.22614209 -0.10825541 1.3310001
0.2062587 -0.2015975 1.342
0.21208522 -0.20276278 1.342
0.23684789 -0.2042194 1.342
0.24520366 -0.20469503 1.3457502
0.25544399 -0.20404762 1.3453335
0.26454961 -0.20357427 1.3447778
0.27493104 -0.20331435 1.3447778
0.28486371 -0.20314267 1.3445001
0.29502031 -0.20382465 1.3464446
0.30485204 -0.20383722 1.3470001
0.31619406 -0.20312834 1.3470001
0.32477143 -0.20254354 1.3470001
0.3340506 -0.20188072 1.3470001
0.34426549 -0.20039918 1.3470001
0.2062587 -0.19926687 1.342
0.24432527 -0.19926687 1.342
0.25287083 -0.19926687 1.342
0.28549933 -0.19926687 1.342
0.29482174 -0.19926688 1.342
0.30530947 -0.19926688 1.342
0.31398451 -0.19693628 1.342
0.32481596 -0.19501686 1.3433636
0.33472499 -0.19547826 1.3465456
0.34529153 -0.19434574 1.3470001
0.35512227 -0.19353127 1.3470001
0.36342543 -0.19232307 1.3470001
0.32919818 -0.1881965 1.342
0.33599579 -0.18567167 1.3419997
0.34621492 -0.18480393 1.3470001
0.3555721 -0.1848039 1.3470001
0.36469528 -0.18503787 1.3470001
0.37077749 -0.18831284 1.3470001
0.33677268 -0.17479552 1.342
0.3460559 -0.17536537 1.3463751
0.35393459 -0.17801997 1.3470001
0.33618999 -0.16508465 1.342
0.34602365 -0.16482726 1.3462502
0.35206315 -0.16491994 1.3470001
0.31696251 -0.15265472 1.342
0.32513303 -0.15480463 1.3434999
0.33487388 -0.15517086 1.3447776
0.34432551 -0.15574273 1.3470001
0.30608633 -0.14177857 1.342
0.31486776 -0.14494255 1.344
0.32466006 -0.14754237 1.3470001
0.33217919 -0.14854492 1.3470001
0.28782994 -0.13167928 1.342
0.29522485 -0.13478152 1.3430712
0.30475485 -0.13670756 1.3456365
0.31346488 -0.13918775 1.3470001
0.25558987 -0.12041467 1.342
0.26562923 -0.1228958 1.3436667
0.27493104 -0.12520258 1.3447778
0.28486368 -0.12725252 1.3445001
0.29358089 -0.1298306 1.3470001
0.23647794 -0.11215468 1.3434286
0.24507669 -0.11553435 1.3440001
0.25486594 -0.11690969 1.3463751
0.26083085 -0.11813415 1.3470001
0.23306067 -0.10837321 1.342
0.3620134 -0.23701854 1.358
0.27475283 -0.2205098 1.358
0.28772402 -0.22050978 1.358
0.29597837 -0.22050978 1.358
0.30069515 -0.22050978 1.358
0.31720394 -0.22253124 1.3579999
0.32475078 -0.22263233 1.3579999
0.33253348 -0.22050978 1.358
0.25509053 -0.21232387 1.352
0.26506832 -0.21353517 1.3532858
0.27487171 -0.21456379 1.3559997
0.28538653 -0.2138831 1.3549998
0.29540363 -0.2142038 1.3553749
0.30473629 -0.2144437 1.3563998
0.31457853 -0.21445473 1.3557895
0.32507113 -0.21367183 1.3536667
0.33532599 -0.21414486 1.3549999
0.34440294 -0.21397679 1.3549999
0.35540983 -0.21390624 1.3579999
0.3661406 -0.21363115 1.3579999
0.37498453 -0.21410842 1.3579999
0.38394648 -0.21296294 1.3579999
0.39545968 -0.21257702 1.3579999
0.40513828 -0.21242388 1.3579999
0.25123316 -0.20779565 1.3520001
0.26649499 -0.20779566 1.3520001
0.27471289 -0.20779565 1.3520001
0.28527874 -0.20779565 1.3520001
0.29467067 -0.20779566 1.3520001
0.30641052 -0.20779566 1.3520001
0.31462845 -0.20779565 1.3520001
0.32613352 -0.20732605 1.3520001
0.33654284 -0.207013 1.3520001
0.34547231 -0.20566112 1.3520001
0.35488471 -0.20456997 1.3523999
0.36513653 -0.20455106 1.3551763
0.37477717 -0.20517778 1.3563999
0.38431162 -0.20512453 1.3576249
0.39494261 -0.20513566 1.3576999
0.40513831 -0.20484328 1.3579999
0.41153964 -0.20164263 1.358
0.43669584 -0.20321488 1.3580002
0.35806593 -0.19722977 1.3520001
0.36675346 -0.19652537 1.3520001
0.37567571 -0.19488178 1.3519999
0.38480935 -0.19467141 1.3528572
0.39506614 -0.19576934 1.3563333
0.40541834 -0.19563659 1.3572499
0.41389805 -0.19869465 1.358
0.36980581 -0.18196794 1.3520001
0.37591049 -0.1852551 1.3519999
0.38456446 -0.18582532 1.352
0.39506307 -0.18504797 1.3565713
0.4050194 -0.18527262 1.3579999
0.42333162 -0.1874923 1.3580002
0.35595271 -0.17304564 1.3520001
0.36510986 -0.17492402 1.3519998
0.37575442 -0.17529213 1.3529471
0.38472235 -0.17530803 1.3539997
0.39532602 -0.17455986 1.3573998
0.4056437 -0.17452112 1.3579999
0.41153964 -0.17491418 1.3580002
0.35618752 -0.16412334 1.3520001
0.36510989 -0.16435812 1.3519998
0.37505922 -0.16460127 1.3540001
0.38420579 -0.16499573 1.35725
0.39503092 -0.16571181 1.3579999
0.40564367 -0.16626674 1.3579999
0.41153964 -0.16862513 1.358
0.34515211 -0.15144429 1.3520001
0.3547788 -0.15473147 1.3519999
0.36484668 -0.15534887 1.3553748
0.37434962 -0.15628892 1.3579999
0.38391274 -0.15818082 1.3579999
0.32613352 -0.14346118 1.3520001
0.3360371 -0.14463955 1.3528
