# .PCD v0.7 - Point Cloud Data file format
VERSION 0.7
FIELDS x y z
SIZE 4 4 4
TYPE F F F
COUNT 1 1 1
WIDTH 1233
HEIGHT 1
VIEWPOINT 0 0 0 1 0 0 0
POINTS 1233
DATA ascii
0.32487997 -0.21488124 1.473
0.32615903 -0.20592786 1.473
0.29806933 -0.23871352 1.4860001
0.30065 -0.23871352 1.4860001
0.30839208 -0.22322941 1.4860001
0.31441367 -0.22322941 1.4860001
0.3212955 -0.22451974 1.4860001
0.30839208 -0.21548735 1.4860001
0.31591788 -0.2144821 1.485
0.32428196 -0.21376051 1.48
0.33027929 -0.21333215 1.48
0.31767976 -0.20792381 1.4836
0.32468152 -0.20603752 1.4821817
0.33548927 -0.20000322 1.4860001
0.33677962 -0.19742253 1.4860001
0.28592506 -0.24166961 1.4990001
0.29026386 -0.24080187 1.4990001
0.24861166 -0.23169044 1.4990001
0.25440839 -0.23398025 1.4970003
0.26423123 -0.23299207 1.4990001
0.28592506 -0.23385984 1.4990001
0.29424721 -0.23483939 1.4942108
0.30600974 -0.23553161 1.4920003
0.3145839 -0.23543739 1.4920002
0.32064947 -0.23384738 1.4920001
0.24542995 -0.2233569 1.4955001
0.25388274 -0.22531424 1.495182
0.26553285 -0.22518228 1.4990002
0.27594593 -0.22518229 1.4990002
0.28505734 -0.22518229 1.4990001
0.29482442 -0.22522813 1.4935559
0.30485368 -0.22572528 1.4920003
0.31611502 -0.22672182 1.4920001
0.32000169 -0.22931294 1.4920001
0.23819861 -0.21997575 1.4990001
0.24603966 -0.2168563 1.4974446
0.25342616 -0.21573251 1.4966669
0.26857004 -0.21824025 1.4990001
0.27748421 -0.21642585 1.4990002
0.28505734 -0.21607083 1.4990002
0.29463524 -0.2154655 1.4948003
0.30549151 -0.21497551 1.4920003
0.31222835 -0.2111752 1.4920001
0.24731003 -0.2095627 1.4990001
0.25121492 -0.2095627 1.4990001
0.27985081 -0.20565781 1.4990001
0.28505734 -0.20565782 1.4990002
0.29491118 -0.20527366 1.4962003
0.30575061 -0.2046974 1.4920003
0.31456035 -0.20392008 1.4920002
0.32259279 -0.2022914 1.492
0.33166164 -0.20081078 1.4920001
0.34386262 -0.20112483 1.4943334
0.35013893 -0.20175292 1.4990001
0.27985081 -0.19481088 1.4990001
0.28505731 -0.19524474 1.4990002
0.29408178 -0.19518667 1.4985628
0.30479443 -0.19536507 1.4981768
0.31486213 -0.19473729 1.4971336
0.32502803 -0.1950123 1.4972503
0.33545575 -0.19492243 1.4985336
0.34453174 -0.19501328 1.4972502
0.35125461 -0.19468692 1.499
0.27985081 -0.18743497 1.4990001
0.28505731 -0.18743497 1.4990001
0.29431337 -0.18700109 1.4990001
0.30536279 -0.186654 1.4990001
0.3149949 -0.18613334 1.4990002
0.32510036 -0.18647894 1.4976002
0.33365348 -0.18713844 1.4931668
0.34493241 -0.1887366 1.4990001
0.28508079 -0.24454178 1.506
0.24846491 -0.2353878 1.506
0.26808056 -0.23931094 1.506
0.27431732 -0.23448245 1.5060003
0.28227857 -0.23594825 1.5059999
0.23744278 -0.22436568 1.5059999
0.24519564 -0.2268877 1.506
0.26284972 -0.22231071 1.506
0.27331141 -0.221003 1.506
0.23744278 -0.21427764 1.5059999
0.24366996 -0.21460974 1.506
0.25631118 -0.21054132 1.506
0.2638959 -0.21420291 1.5060003
0.27357295 -0.21315674 1.5060002
0.24603629 -0.20643137 1.5059999
0.25533038 -0.2056374 1.506
0.2638959 -0.20635664 1.506
0.27461907 -0.20400278 1.5060003
0.28115767 -0.20661819 1.506
0.27540374 -0.19458725 1.5060002
0.28115767 -0.19746421 1.506
0.27630046 -0.18774982 1.5059999
0.28508079 -0.18307942 1.506
0.29535565 -0.18289259 1.5059999
0.30574262 -0.18517177 1.5060002
0.31515813 -0.1817717 1.506
0.32169667 -0.18307941 1.506
0.28638849 -0.17915627 1.506
0.29423475 -0.17915626 1.506
0.30992728 -0.17654085 1.506
0.31472221 -0.17610495 1.506
0.32038897 -0.17915627 1.506
0.28270531 -0.271274 1.5190001
0.28471437 -0.26552159 1.5170002
0.29148892 -0.26515025 1.5162001
0.28332448 -0.25573009 1.5134001
0.29015532 -0.25864524 1.5120001
0.23780416 -0.24307711 1.5172501
0.24195009 -0.2432691 1.5143334
0.27702615 -0.24026437 1.5120001
0.28332815 -0.24604122 1.5120001
0.23622748 -0.23510385 1.5150001
0.2439484 -0.23511158 1.5126363
0.20972075 -0.22027273 1.5190001
0.21763474 -0.22027273 1.5190001
0.22475731 -0.22238311 1.5190001
0.23344629 -0.2255518 1.5155001
0.24420312 -0.229761 1.5120001
0.20972075 -0.21631575 1.5190001
0.21763474 -0.21631575 1.5190001
0.22422971 -0.21499671 1.5190001
0.23374684 -0.21534775 1.5137501
0.22488922 -0.20686293 1.5190001
0.23403446 -0.2051107 1.5141878
0.24401747 -0.20407952 1.5145454
0.25383121 -0.20175207 1.5120001
0.26532918 -0.20374133 1.512
0.22818671 -0.19477208 1.5190001
0.23457848 -0.19504043 1.5176878
0.24533369 -0.19521174 1.5190003
0.25566119 -0.19504349 1.5176878
0.26592466 -0.19494431 1.5176003
0.27142948 -0.19519505 1.5137501
0.2347817 -0.18729776 1.5190001
0.24533369 -0.18597877 1.5190001
0.25581086 -0.18460545 1.5185628
0.26569438 -0.18736203 1.518
0.27424285 -0.18449506 1.5155001
0.28094664 -0.18070278 1.5190001
0.30591038 -0.18249589 1.5120001
0.25896338 -0.17718546 1.5190001
0.26248068 -0.17542678 1.5190001
0.2851699 -0.17878687 1.5162001
0.29409409 -0.17790066 1.5120001
0.30497259 -0.17649396 1.5120002
0.31772667 -0.17987004 1.5120001
0.29529846 -0.2688143 1.5250001
0.23968172 -0.25292379 1.5250001
0.24233013 -0.25159958 1.5250001
0.23615049 -0.24497855 1.5250001
0.22820525 -0.23570909 1.5250001
0.23306066 -0.2352677 1.5250001
0.20790072 -0.2211428 1.5250001
0.21452175 -0.22246701 1.5250001
0.22485058 -0.22802868 1.5250001
0.23173647 -0.22908805 1.5250001
0.20790072 -0.21717018 1.5250001
0.21584596 -0.21508928 1.5250002
0.21849439 -0.20790072 1.5250001
0.2237912 -0.20348668 1.5250001
0.22696932 -0.19624768 1.5250001
0.22696932 -0.18830243 1.5250001
0.23627661 -0.18292992 1.5250002
0.26616588 -0.18274076 1.5250001
0.27543533 -0.18141654 1.5250001
0.23968172 -0.17876813 1.5250001
0.27411112 -0.17725477 1.5250002
0.28523451 -0.17559001 1.5250001
0.29132584 -0.17744392 1.5250001
0.22851843 -0.26059118 1.539
0.23252751 -0.26326391 1.539
0.23769163 -0.25505427 1.5378333
0.24078189 -0.25408477 1.5320001
0.22621894 -0.24311177 1.5355
0.23310235 -0.24528407 1.5340002
0.20980932 -0.23252752 1.539
0.21520002 -0.23306839 1.5354999
0.22300744 -0.23512745 1.5345454
0.20623134 -0.22425403 1.53725
0.21550643 -0.22659217 1.5320001
0.19845021 -0.21515477 1.539
0.20526142 -0.21504927 1.5366665
0.21364406 -0.21257982 1.5320001
0.19911839 -0.20713659 1.539
0.20587745 -0.20587745 1.5375998
0.21535571 -0.20526011 1.5349998
0.22240861 -0.20176788 1.5337501
0.20790024 -0.19682749 1.5390002
0.21579252 -0.19442286 1.5383636
0.22266178 -0.19546801 1.5354999
0.22388297 -0.18446773 1.536846
0.2301396 -0.18357956 1.5320001
0.22762752 -0.17595474 1.539
0.23119116 -0.17506382 1.539
0.25940591 -0.17426756 1.5320001
0.26572284 -0.17512152 1.5343333
0.27402341 -0.17442438 1.5333999
0.28367323 -0.17379844 1.5337501
0.29399335 -0.17692813 1.5320001
0.26445061 -0.16694912 1.538125
0.27539399 -0.16560644 1.5389998
0.2817356 -0.16499583 1.5348001
0.26647121 -0.15582016 1.539
0.27395484 -0.15742381 1.539
0.21881828 -0.26446134 1.5460001
0.22586608 -0.26546818 1.5460002
0.22955781 -0.25461677 1.5460001
0.23377693 -0.25487247 1.5460002
0.21536627 -0.24144803 1.5460002
0.22365108 -0.24620411 1.5460001
0.20700476 -0.23439062 1.5460001
0.2107636 -0.23761247 1.5460001
0.19554925 -0.22329308 1.5460001
0.20232542 -0.22572228 1.5460002
0.18928452 -0.21479094 1.5460001
0.19441022 -0.2146689 1.5460002
0.20002407 -0.2107636 1.5460001
0.19519128 -0.20458838 1.5460002
0.20109801 -0.20217197 1.5460001
0.19599673 -0.19733918 1.5460001
0.20360391 -0.19465429 1.5460002
0.21344848 -0.19554925 1.5460001
0.20807873 -0.18794207 1.5460001
0.21510074 -0.18536043 1.5460001
0.22150315 -0.18122986 1.5460001
0.21881828 -0.17720252 1.5460001
0.22553049 -0.17630757 1.5460001
0.27788576 -0.17049031 1.5460001
0.24835202 -0.16512054 1.5460001
0.25543037 -0.16487646 1.5460002
0.26637912 -0.16435345 1.5460002
0.2752009 -0.16512054 1.5460001
0.25679025 -0.15783298 1.5460002
0.2649495 -0.15535732 1.5460002
0.27430594 -0.1561709 1.5460001
0.28057066 -0.15840831 1.5460001
0.26580378 -0.14901121 1.5460001
0.21980904 -0.26296175 1.5530001
0.22520313 -0.26296175 1.5530001
0.22587737 -0.25284782 1.5530001
0.23194572 -0.25756764 1.5530001
0.20767234 -0.24273391 1.5530001
0.21557082 -0.24716476 1.5530002
0.22250608 -0.24947652 1.5530001
0.19643466 -0.23239525 1.5530001
0.20285618 -0.23406485 1.5530002
0.18744452 -0.22250608 1.5530001
0.1922992 -0.22574253 1.5530001
0.18744452 -0.21576348 1.5530001
0.19014156 -0.21576348 1.5530001
0.18744452 -0.20767234 1.5530001
0.19104058 -0.20407628 1.5530001
0.19523597 -0.19433697 1.5530002
0.20295252 -0.19081582 1.5530001
0.2054248 -0.18564649 1.5530001
0.2117179 -0.18339896 1.5530001
0.21634139 -0.17627105 1.5530002
0.2238546 -0.17530783 1.5530001
0.23059721 -0.17126225 1.5530001
0.24677949 -0.1620923 1.5530001
0.25217357 -0.16047408 1.5530001
0.24947652 -0.15777704 1.5530001
0.25487062 -0.15597901 1.5530001
0.26026469 -0.15238295 1.5530001
0.20546244 -0.26261091 1.567
0.21426235 -0.26308721 1.5617502
0.22350901 -0.2614378 1.5600001
0.19729836 -0.25172549 1.567
0.20610537 -0.25525728 1.566
0.21491766 -0.25583887 1.5626924
0.22409533 -0.25732407 1.5617502
0.1891343 -0.24084008 1.567
0.19483031 -0.24450058 1.565091
0.2037302 -0.24632785 1.5621002
0.17824887 -0.232676 1.567
0.18526974 -0.23495986 1.5657274
0.19404644 -0.2363777 1.5600002
0.20319 -0.23976421 1.5600001
0.17708257 -0.22528948 1.5670002
0.18393467 -0.2256123 1.5625
0.1909986 -0.2289274 1.5600001
0.17643462 -0.21453363 1.5670002
0.18299328 -0.21483113 1.563182
0.17688818 -0.20546244 1.567
0.1842093 -0.20412536 1.5637333
0.17824887 -0.19593769 1.567
0.18523628 -0.19485913 1.5659231
0.19208229 -0.19316596 1.5600001
0.18719046 -0.1868017 1.5670002
0.19525264 -0.18493499 1.5637333
0.20472452 -0.18221995 1.5614002
0.2126722 -0.1801618 1.5600001
0.19639124 -0.17734174 1.567
0.20528653 -0.17469864 1.5656874
0.21432967 -0.17222157 1.5642002
0.2249584 -0.17186427 1.5620002
0.2081838 -0.16736344 1.567
0.21535827 -0.16488948 1.5670002
0.22572847 -0.16531107 1.566
0.23576145 -0.16499588 1.563
0.24247341 -0.16119741 1.5600001
0.2158943 -0.15829225 1.567
0.2249655 -0.15829225 1.567
0.232676 -0.15919937 1.567
0.25621089 -0.15273072 1.5611668
0.26279241 -0.1503606 1.5600001
0.25988957 -0.14831394 1.567
0.18997918 -0.26105052 1.5740001
0.19544621 -0.26105052 1.574
0.20091324 -0.26241729 1.5740001
0.18906802 -0.25330558 1.5740002
0.19483876 -0.25527981 1.5740002
0.20091324 -0.25558349 1.574
0.17904513 -0.24191594 1.5740001
0.18603076 -0.24434572 1.5740002
0.17549156 -0.23480883 1.5740002
0.18177864 -0.23918243 1.5740001
0.16811107 -0.22278135 1.574
0.17221135 -0.22414809 1.5740002
0.16701767 -0.21403411 1.5740001
0.17193797 -0.21512751 1.5740001
0.16693957 -0.20520875 1.5740002
0.17330475 -0.20419343 1.5740002
0.16615857 -0.19544621 1.5740002
0.17412481 -0.19517288 1.5740002
0.17661533 -0.18724567 1.5740002
0.18420844 -0.18451217 1.5740002
0.18724567 -0.17767836 1.5740002
0.19510451 -0.17426148 1.5740002
0.20091324 -0.17221135 1.5740001
0.19817972 -0.16811107 1.5740001
0.20501351 -0.16537757 1.5740002
0.21184729 -0.16264404 1.5740001
0.20706365 -0.15922715 1.5740001
0.2145808 -0.15717702 1.5740001
0.17984138 -0.25260165 1.5810001
0.18498953 -0.25500411 1.5810002
0.16902328 -0.24353148 1.5890001
0.17574948 -0.24505463 1.5846366
0.1839599 -0.24848314 1.5810001
0.1586749 -0.23180333 1.5890001
0.16559131 -0.23449819 1.5870003
0.17160438 -0.23612761 1.5810001
0.15757106 -0.22435251 1.5890001
0.16441299 -0.22518228 1.5839092
0.15536895 -0.21476403 1.5877693
0.16254246 -0.21474262 1.581889
0.15487351 -0.20495893 1.5860912
0.1625829 -0.20455243 1.5810002
0.15607059 -0.19543092 1.585
0.16315261 -0.19398211 1.581889
0.1586749 -0.18765032 1.5890001
0.16612063 -0.18541513 1.5871539
0.17377391 -0.18441685 1.5820001
0.16971315 -0.17799184 1.5890001
0.17650895 -0.17822847 1.5850002
0.18492478 -0.17465681 1.5860908
0.19219691 -0.17160438 1.5810001
0.1890301 -0.16833338 1.5890001
0.19503908 -0.16570216 1.5836668
0.20122729 -0.16180785 1.5836668
0.16630322 -0.25084066 1.5960001
0.17600425 -0.2536124 1.596
0.18154767 -0.25915584 1.5960001
0.15937391 -0.2425255 1.5960001
0.16457088 -0.24564368 1.596
0.14828703 -0.23421033 1.5960001
0.1548965 -0.23570281 1.5960001
0.16214563 -0.23836792 1.5960001
0.13997187 -0.22312345 1.5960001
0.14551532 -0.2245093 1.5960001
0.15279108 -0.2255487 1.596
0.13997187 -0.2148083 1.5960001
0.14551531 -0.21480832 1.596
0.15105875 -0.21619415 1.5960001
0.13997187 -0.20649314 1.5960001
0.14606966 -0.20566162 1.596
0.15105875 -0.20372142 1.5960001
0.14690118 -0.19540627 1.5960001
0.15175168 -0.19471335 1.5960001
0.14630723 -0.18550727 1.596
0.15462239 -0.18530929 1.5960001
0.16306953 -0.18247159 1.5960001
0.15660217 -0.17600425 1.596
0.16491735 -0.17461838 1.5960001
0.17424041 -0.17298055 1.596
0.18431939 -0.17046078 1.5960001
0.15937391 -0.16768907 1.5960001
0.16630322 -0.16768907 1.5960001
0.17544989 -0.16713473 1.5960001
0.18555126 -0.16522533 1.596
0.19402042 -0.16214563 1.5960001
0.20372142 -0.15937391 1.5960001
0.17677617 -0.26029247 1.603
0.15450516 -0.25194085 1.603
0.1647127 -0.25426075 1.603
0.17343552 -0.25639504 1.603
0.14800943 -0.24173331 1.603
0.15422677 -0.24581631 1.6029999
0.16007291 -0.24776503 1.603
0.14371763 -0.23488961 1.6029999
0.12945026 -0.22271013 1.603
0.13527109 -0.22511439 1.6029999
0.14058578 -0.22966984 1.603
0.12945026 -0.21435851 1.603
0.13501801 -0.21435849 1.603
0.12945026 -0.20183106 1.603
0.13501802 -0.20461494 1.6029999
0.1424417 -0.20275903 1.603
0.12945026 -0.19487137 1.603
0.13501801 -0.19487137 1.603
0.14197773 -0.19487137 1.6029999
0.13536601 -0.18547578 1.6029999
0.14336966 -0.18552552 1.6029999
0.1378019 -0.17956005 1.603
0.14539428 -0.17677617 1.6029999
0.15357721 -0.17306435 1.603
0.15506193 -0.16731098 1.603
0.16462836 -0.16386913 1.6029999
0.17500462 -0.16260372 1.6029999
0.18512781 -0.16118646 1.603
0.19487137 -0.16007291 1.603
0.20183106 -0.16007291 1.603
0.16842455 -0.15728904 1.603
0.17538424 -0.15728904 1.603
0.18457103 -0.15617549 1.603
0.19347943 -0.15728904 1.603
0.16578567 -0.26272815 1.618
0.17346174 -0.26159149 1.6110001
0.14735857 -0.25191891 1.61625
0.15478939 -0.25533661 1.6156667
0.16314486 -0.25837541 1.6127501
0.1376864 -0.24024874 1.618
0.14467022 -0.24590074 1.6141112
0.12691502 -0.2327556 1.618
0.13439417 -0.23437852 1.6141112
0.14128739 -0.23920934 1.6110001
0.12479725 -0.22482753 1.6148889
0.1300963 -0.22801827 1.6110001
0.11942188 -0.21776932 1.618
0.12499771 -0.21546841 1.6141819
0.11942188 -0.20090976 1.618
0.12481228 -0.20475642 1.6150833
0.1300963 -0.20703498 1.6110001
0.11942188 -0.19669488 1.618
0.12467705 -0.19472663 1.6133333
0.12504798 -0.18546976 1.6148182
0.13177578 -0.18336594 1.6120001
0.13646129 -0.17544889 1.6164445
0.14386262 -0.172273 1.613
0.14672966 -0.16776158 1.6145
0.15401369 -0.16305034 1.6141112
0.16227067 -0.16087177 1.6110001
0.15427367 -0.15596083 1.6152
0.16507234 -0.15479766 1.6133333
0.17486061 -0.15387735 1.6110001
0.18325394 -0.15387735 1.6110001
0.19304612 -0.15527624 1.6110001
0.15672201 -0.26120335 1.626
0.16236965 -0.26402718 1.626
0.13836718 -0.25273189 1.626
0.14472078 -0.25555572 1.626
0.15107438 -0.25837955 1.626
0.12777786 -0.24355447 1.626
0.13554336 -0.24567235 1.626
0.12346368 -0.23484771 1.6260002
0.13130763 -0.2386128 1.626
0.11577662 -0.22449373 1.626
0.12001235 -0.2244937 1.626
0.11462143 -0.21448198 1.6260002
0.12001235 -0.21319842 1.626
0.11436471 -0.20472695 1.6260002
0.12001235 -0.20613886 1.626
0.11436474 -0.19484358 1.626
0.12001235 -0.19201976 1.626
0.11530598 -0.18590148 1.626
0.1207183 -0.18425426 1.626
0.12565999 -0.17648876 1.6260002
0.13332464 -0.17326152 1.6260002
0.1380848 -0.16632299 1.626
0.14542674 -0.16378157 1.626
0.14583014 -0.1575288 1.6260002
0.15107438 -0.15672201 1.626
0.14897995 -0.26248848 1.6340001
0.15465538 -0.26390734 1.6340001
0.1603308 -0.2653262 1.6340001
0.12684579 -0.25284028 1.6340001
0.13443667 -0.25503948 1.6339999
0.1425951 -0.25894135 1.6340001
0.11776511 -0.24262449 1.6340001
0.12308583 -0.24581693 1.6339999
0.10925197 -0.23127364 1.6340001
0.11518537 -0.23514323 1.6340001
0.12060282 -0.23836793 1.6340001
0.10783311 -0.22559822 1.6339999
0.11208967 -0.22559822 1.6340002
0.10527917 -0.21538247 1.6340003
0.11208968 -0.21708508 1.6340001
0.097901113 -0.2000588 1.6340001
0.1049954 -0.20431533 1.6340003
0.097191684 -0.19367394 1.6340001
0.10499539 -0.19438338 1.6340002
0.097901113 -0.18870795 1.6340001
0.10575939 -0.18521537 1.6340002
0.11398149 -0.1820866 1.6339999
0.1158733 -0.17546529 1.6339999
0.12249464 -0.17357348 1.6339999
0.12741332 -0.16714132 1.6340001
0.13450763 -0.16373606 1.6340001
0.14046681 -0.1603308 1.6340001
0.12911595 -0.1574931 1.6340001
0.13479139 -0.1574931 1.6340002
0.14046681 -0.1574931 1.6340001
0.11359596 -0.25248849 1.649
0.12254441 -0.25221351 1.641
0.10764573 -0.24242635 1.6442
0.11452921 -0.24601398 1.6418889
0.097367957 -0.23196484 1.649
0.10498164 -0.23544873 1.645
0.09655086 -0.22393289 1.6455715
0.10259533 -0.22513974 1.6409999
0.087344781 -0.21048661 1.649
0.093892634 -0.21494636 1.6455716
0.086794548 -0.20364125 1.6476668
0.094631255 -0.2054413 1.6430001
0.08634156 -0.19447263 1.6481112
0.092745818 -0.19630425 1.6432856
0.088153489 -0.18726854 1.6463333
0.094237231 -0.18501294 1.6444288
0.10212035 -0.18191671 1.6410002
0.097367957 -0.17755333 1.649
0.10610915 -0.17599215 1.6453636
0.11278661 -0.17217784 1.6442001
0.11663789 -0.16729398 1.6467143
0.12439073 -0.16434197 1.6431819
0.12627681 -0.15772726 1.6463333
0.077696733 -0.24028434 1.6570001
0.084890872 -0.24028434 1.6570001
0.095921896 -0.24124356 1.6569999
0.10503447 -0.24603964 1.6570001
0.077696733 -0.23740669 1.6570001
0.08373981 -0.23452902 1.6569999
0.093523853 -0.23524842 1.6569998
0.08585009 -0.22397763 1.6569998
0.091797248 -0.22647159 1.6569999
0.078416146 -0.21366602 1.6570001
0.084531173 -0.21474512 1.6569998
0.077080086 -0.20534137 1.6569998
0.082732633 -0.20647186 1.6570001
0.077696733 -0.19568068 1.6569998
0.08201322 -0.19568065 1.6570001
0.077696733 -0.18560886 1.6569999
0.084068693 -0.18519776 1.6569998
0.077696733 -0.17841472 1.6570001
0.085152484 -0.17592947 1.6569997
0.094003461 -0.17457783 1.6569997
0.10431506 -0.17193997 1.6570001
0.097223692 -0.16587637 1.6569998
0.10467476 -0.16582496 1.6569998
0.11366744 -0.164232 1.6569998
0.099279158 -0.15683229 1.6570001
0.11596956 -0.15740782 1.6569999
0.12325963 -0.15779151 1.6570001
0.10698736 -0.25156486 1.6650001
0.073734529 -0.24144444 1.6650001
0.085300721 -0.24433596 1.6650001
0.095132001 -0.24607091 1.6650002
0.10265003 -0.24722753 1.6650001
0.067951426 -0.2371071 1.6650001
0.074601993 -0.23508301 1.6650002
0.086746499 -0.23566133 1.6650001
0.067951426 -0.22264937 1.6650001
0.075180292 -0.22554089 1.6650004
0.082409181 -0.22698669 1.6650001
0.067951426 -0.21397471 1.6650001
0.073373087 -0.21578193 1.6650001
0.059276778 -0.20385428 1.6650001
0.065638192 -0.20472176 1.6650002
0.072082214 -0.20550659 1.6650001
0.059276778 -0.19662541 1.6650001
0.065059878 -0.19517963 1.6650001
0.072288752 -0.19517963 1.6650001
0.06602373 -0.18554111 1.6650001
0.072288752 -0.18505919 1.6650001
0.067951426 -0.17783032 1.6650001
0.075019658 -0.1746175 1.6650001
0.082409181 -0.17204723 1.6650001
0.086385064 -0.16590269 1.6650001
0.092891037 -0.16373402 1.6650001
0.10626446 -0.16120392 1.6650001
0.11132468 -0.16048104 1.6650001
0.093975373 -0.1561437 1.6650001
0.10554159 -0.15614368 1.6650001
0.115662 -0.15662563 1.6650001
0.10314324 -0.25132087 1.6730001
0.066534653 -0.23330712 1.6730001
0.066340953 -0.22517186 1.673
0.059561592 -0.21209738 1.6730001
0.064888231 -0.21548705 1.6730002
0.057818323 -0.20483378 1.6730001
0.062467035 -0.2077392 1.6730001
0.057624627 -0.19369622 1.6730002
0.059561592 -0.18594837 1.6730001
0.062467035 -0.18449564 1.673
0.065856718 -0.17577933 1.6730002
0.071183361 -0.17287388 1.6730001
0.077720605 -0.16924207 1.6730001
0.083531491 -0.1634312 1.6730001
0.087163299 -0.15834667 1.6730001
0.06276574 -0.23500662 1.6810001
0.059846405 -0.22332926 1.6810001
0.063349612 -0.22566473 1.6810001
0.05692707 -0.21384141 1.6810001
0.06276574 -0.21749058 1.6810001
0.052548066 -0.20581324 1.6810001
0.052548066 -0.19559556 1.681
0.054980841 -0.18537788 1.681
0.058873292 -0.1785661 1.6810001
0.064955249 -0.1729707 1.6810001
0.071523748 -0.1707812 1.6810001
0.076389313 -0.16688876 1.6810001
0.080281764 -0.16494253 1.6810001
0.048656192 -0.23295996 1.6980001
0.054785632 -0.23280489 1.6922858
0.060166817 -0.23332985 1.6900001
0.047181759 -0.2255878 1.6980001
0.054296881 -0.22452497 1.6900003
0.039809611 -0.21231793 1.6980001
0.04565639 -0.21553288 1.6962223
0.05331856 -0.21669836 1.6900002
0.037229359 -0.20457718 1.6980001
0.045795429 -0.20522426 1.6914548
0.035697721 -0.19437027 1.6967692
0.045491986 -0.19517529 1.6900003
0.036092274 -0.18440132 1.6966667
0.04549199 -0.18490291 1.6900004
0.052340239 -0.18147878 1.6900001
0.036860753 -0.17545718 1.6980001
0.045586154 -0.17499331 1.6935556
0.054296881 -0.17463051 1.6900003
0.061145142 -0.17267388 1.6900001
0.04767324 -0.16857649 1.6980001
0.055179112 -0.16619417 1.6971111
0.064699955 -0.16469288 1.6935002
0.074307531 -0.16346915 1.6926668
0.080902621 -0.16180176 1.694
0.064874925 -0.15776402 1.6980001
0.075195931 -0.15628958 1.6980001
0.082370102 -0.1573889 1.694
0.039997172 -0.2222065 1.7060001
0.042959925 -0.22516926 1.7060001
0.037034418 -0.21405894 1.7060001
0.028146157 -0.20294861 1.7060001
0.032096494 -0.20591135 1.706
0.016295144 -0.1910976 1.7060001
0.027158573 -0.19455414 1.7060002
0.03110891 -0.19850448 1.7060001
0.016295144 -0.18813485 1.7060001
0.02666478 -0.1851721 1.7060002
0.03110891 -0.18813485 1.7060001
0.027405469 -0.17702451 1.7060001
0.034071665 -0.17332107 1.7060002
0.042959925 -0.17035832 1.7060001
0.039997172 -0.16739556 1.7060001
0.046416473 -0.16443281 1.7060002
0.052835766 -0.16245764 1.706
0.040208176 -0.22784632 1.715
0.034251407 -0.2159328 1.715
0.0059567671 -0.20401926 1.715
0.013673488 -0.20510231 1.715
0.025316259 -0.20487024 1.715
0.031273026 -0.20997603 1.715
0.005318542 -0.19465862 1.715
0.013733657 -0.19508411 1.715
0.023082472 -0.19582871 1.715
0.0047383378 -0.18506593 1.715
0.014466435 -0.18465979 1.715
0.022337876 -0.18465978 1.715
0.0048398729 -0.17386314 1.715
0.013402726 -0.17423542 1.715
0.025316261 -0.17498004 1.715
0.031273026 -0.17125705 1.715
-0.0029783836 -0.1623219 1.715
0.0044675753 -0.16530029 1.715
0.012551758 -0.16572575 1.715
0.036236998 -0.16728587 1.715
0.041697368 -0.16381109 1.715
0.0074459584 -0.15934351 1.715
0.011913534 -0.15934351 1.715
0.04318656 -0.15934351 1.715
-0.028426629 -0.38151529 1.723
-0.032915045 -0.37403458 1.723
-0.025434351 -0.37403455 1.7229999
-0.019449798 -0.37253845 1.723
-0.040395737 -0.36954618 1.723
-0.032915045 -0.36555648 1.7229999
-0.027429203 -0.36755133 1.723
-0.034411184 -0.35458478 1.723
-0.011969106 -0.34560797 1.723
-0.013465245 -0.33513498 1.7229997
-0.0048624501 -0.33588308 1.7229998
0.0037403461 -0.33737922 1.723
-0.011969106 -0.3276543 1.723
-0.022442076 -0.31867748 1.723
-0.01795366 -0.31867748 1.723
-0.0044884151 -0.22292462 1.723
0.037403461 -0.22442076 1.723
-0.011470393 -0.21195294 1.723
-0.0044884156 -0.21544392 1.7229997
0.0042163902 -0.2150359 1.7229997
0.01383928 -0.21432182 1.7229998
0.025434352 -0.21344908 1.7229999
0.032915045 -0.21843621 1.723
-0.01309121 -0.20497096 1.7229998
-0.0044884151 -0.20497096 1.7229998
0.0014961384 -0.20497096 1.723
0.019449798 -0.20497096 1.723
0.022442076 -0.20796323 1.723
-0.011969107 -0.19449799 1.7229998
-0.0044884156 -0.19449799 1.7229997
0.0014961384 -0.19749027 1.723
0.019449798 -0.19749027 1.723
-0.011470393 -0.18601985 1.723
-0.0044884156 -0.18402503 1.7229998
0.0014961384 -0.18103275 1.723
0.019449798 -0.18103275 1.723
-0.010472968 -0.17504819 1.723
-0.0044884156 -0.1750482 1.7229998
0.0014961384 -0.17804046 1.723
0.019449798 -0.17504819 1.723
0.023439502 -0.17305334 1.723
-0.011969106 -0.16607136 1.723
-0.0044884156 -0.16756749 1.7229999
0.017205592 -0.16457522 1.723
0.025861818 -0.16692628 1.7229998
0.033413757 -0.16507393 1.7229999
-0.031583022 -0.38350812 1.732
-0.02456457 -0.38250551 1.7320002
-0.018548759 -0.38451076 1.7320002
-0.036094882 -0.37298042 1.7320001
-0.0225593 -0.37147647 1.7320001
-0.017546123 -0.37348175 1.732
-0.035593566 -0.36445805 1.732
-0.025191218 -0.36546066 1.7320002
-0.015941907 -0.36515987 1.7320001
-0.043184943 -0.35643697 1.7320002
-0.034590926 -0.35479629 1.7320002
-0.025567209 -0.35493302 1.7320002
-0.0151398 -0.35523376 1.7320002
-0.0045118602 -0.35342905 1.7320002
-0.052638367 -0.3459093 1.7320001
-0.034590926 -0.34590927 1.7320002
-0.025567209 -0.34440532 1.7320002
-0.016167499 -0.34553331 1.7320002
-0.0045118602 -0.34490666 1.7320002
0.0037598836 -0.34365332 1.7320001
0.010527674 -0.3413974 1.7320001
-0.031583022 -0.33538163 1.732
-0.025567209 -0.3353816 1.7320002
-0.019551395 -0.3353816 1.732
-0.0035092246 -0.33337632 1.732
0.003007907 -0.33387765 1.7320001
-0.032585658 -0.32385129 1.7320002
-0.025840657 -0.3252641 1.7320002
-0.015039534 -0.3248539 1.7320002
-0.0045118602 -0.32635787 1.7320002
0.0030079072 -0.32635787 1.7320002
-0.032585654 -0.31633154 1.732
-0.024707805 -0.31475595 1.7320002
-0.016209276 -0.31499469 1.7320002
-0.018047441 -0.30680647 1.7320001
-0.010527674 -0.29477486 1.7320001
-0.012031627 -0.28424719 1.7320002
-0.012031628 -0.27672744 1.7320001
-0.0075197667 -0.27672744 1.7320001
-0.012532945 -0.23110749 1.732
-0.0051134415 -0.23130803 1.7320001
0.036094882 -0.23010486 1.7320001
-0.013159592 -0.22371307 1.7320002
-0.0045118602 -0.22589381 1.7320001
0.0045118602 -0.22408906 1.7320001
0.014137162 -0.22228432 1.7320001
0.025567209 -0.22108115 1.732
0.033086974 -0.22408906 1.7320001
-0.0225593 -0.21356139 1.7320001
-0.016209276 -0.21573377 1.7320002
0.019551395 -0.21656927 1.7320001
0.024063254 -0.21807323 1.7320001
-0.0225593 -0.20453766 1.7320001
-0.018548759 -0.20403636 1.7320002
-0.0225593 -0.19701789 1.7320001
-0.018047441 -0.19401 1.7320002
-0.016209276 -0.18431784 1.7320002
-0.015039533 -0.17626335 1.7320001
-0.015039535 -0.16994673 1.7320001
0.019551395 -0.16393091 1.732
0.024063254 -0.16242696 1.7320001
-0.040817745 -0.38550094 1.7410001
-0.036282439 -0.38550094 1.7410001
-0.02721183 -0.38852447 1.7410001
-0.061982505 -0.37038326 1.7410001
-0.055330724 -0.37159267 1.7409999
-0.04600095 -0.37167907 1.7410001
-0.03779421 -0.37038326 1.7410001
-0.014109838 -0.37491858 1.7410001
-0.0065509961 -0.37139109 1.7410001
-0.055935428 -0.36433619 1.7410001
-0.045655403 -0.36494091 1.7409999
-0.03779421 -0.36735973 1.7410001
-0.010582379 -0.36735973 1.7410001
-0.0045353048 -0.36433613 1.7410001
0.0039305976 -0.36252207 1.7409999
-0.06500604 -0.35224202 1.7410001
-0.055935435 -0.35526559 1.7410001
-0.046864819 -0.35396978 1.7410001
-0.0045353053 -0.35526553 1.7410001
0.0033258903 -0.356475 1.7409999
-0.072564885 -0.34317142 1.7410001
-0.056313373 -0.34506115 1.7410001
-0.045252264 -0.34498549 1.7409997
-0.035375379 -0.34196201 1.7409999
-0.025700063 -0.34619495 1.7410001
-0.0045353053 -0.34921849 1.7410001
0.0060470738 -0.34619495 1.7410001
-0.052911893 -0.33712435 1.7410001
-0.044849128 -0.33712435 1.7410001
-0.036282439 -0.33410084 1.7410001
-0.052911893 -0.32503021 1.7410001
-0.045490488 -0.32475534 1.7409999
-0.037038326 -0.32578608 1.7410001
-0.0045353053 -0.32200667 1.7410001
0.0015117683 -0.32200667 1.7410001
-0.052911893 -0.3159596 1.7410001
-0.045353051 -0.31595963 1.7409998
-0.035778519 -0.31495175 1.7410001
-0.028723599 -0.31444782 1.7410001
-0.011590225 -0.31394389 1.7410001
-0.0041033709 -0.3159596 1.7410001
0.0022676527 -0.31671548 1.7410001
-0.042833433 -0.30588111 1.7410001
-0.034770671 -0.30537722 1.7409998
-0.025700063 -0.30537722 1.7409998
-0.014109838 -0.30436936 1.7409998
-0.0039305976 -0.30507487 1.7409999
0.0030235369 -0.30537722 1.7410001
0.015621606 -0.30487326 1.7410001
-0.034770671 -0.29479489 1.7410001
-0.025700063 -0.29479483 1.7410001
-0.016024744 -0.29449245 1.7409999
-0.0045353048 -0.29479483 1.7410001
0.0027211832 -0.29539952 1.7409999
-0.042329516 -0.28572419 1.7410001
-0.034266751 -0.28471637 1.7410001
-0.025700063 -0.28572425 1.7410001
-0.018141221 -0.28572425 1.7410001
-0.0045353048 -0.28572422 1.7410001
0.0015117683 -0.28572422 1.7410001
-0.042329513 -0.27967715 1.7410001
-0.03779421 -0.27967715 1.7410001
-0.023432411 -0.27740949 1.7410001
-0.016125532 -0.27413401 1.7409998
-0.0039305976 -0.27453715 1.7409999
0.0015117683 -0.27665362 1.7410001
-0.015117683 -0.26455945 1.7409998
-0.0045353048 -0.26493743 1.7410001
-0.016629452 -0.25505692 1.7410001
-0.022676526 -0.2433947 1.7410001
-0.014815331 -0.24520883 1.7409997
-0.0057447203 -0.24279001 1.7409999
-0.022676526 -0.23130056 1.7410001
-0.015957555 -0.23499601 1.7410001
-0.0037794211 -0.23659176 1.7410001
0.0037794209 -0.23205644 1.7410001
0.013605915 -0.23130056 1.7410001
0.031747136 -0.23130056 1.7410001
-0.023432411 -0.22449762 1.7410001
-0.018897105 -0.22600937 1.7410001
0.0060470738 -0.22827703 1.7410001
0.015117683 -0.22626133 1.7410001
0.02630477 -0.22646289 1.7409999
0.031747136 -0.22827703 1.7410001
-0.031747136 -0.21315934 1.7410001
-0.026455946 -0.21467111 1.7410001
-0.02721183 -0.20408873 1.7410001
-0.025700063 -0.19501813 1.7410001
-0.031747136 -0.18292397 1.7410001
-0.024836196 -0.18637943 1.7410001
-0.024188295 -0.17990044 1.7410001
-0.067205526 -0.38337699 1.7589999
-0.012156667 -0.38141543 1.7500001
-0.071787722 -0.37268519 1.7590001
-0.066586979 -0.37459001 1.756
-0.010637084 -0.37837628 1.7500001
-0.071604073 -0.36564171 1.7545002
-0.065065794 -0.36428556 1.7500001
0.0030391668 -0.36925876 1.7500001
0.012156667 -0.36014125 1.7500001
-0.081715815 -0.35512012 1.7590001
-0.075114794 -0.35423732 1.7551429
-0.065342084 -0.35406291 1.7500001
0.0060848459 -0.35436642 1.7515001
0.012219188 -0.35588384 1.7589999
-0.081970379 -0.34621033 1.7589999
-0.075310364 -0.34437621 1.7540001
-0.065342084 -0.34494543 1.7500001
-0.057744168 -0.34190625 1.7500001
-0.047107086 -0.34190625 1.7500001
0.012156667 -0.34798458 1.7500001
-0.080952115 -0.33450022 1.7590002
-0.074426845 -0.33459309 1.7563
-0.065342084 -0.33582795 1.7500001
-0.055312835 -0.3352201 1.7500002
-0.044502087 -0.33495957 1.7500001
-0.080952115 -0.32839066 1.7590001
-0.07446067 -0.32571772 1.7589999
-0.065486006 -0.32588312 1.75375
-0.057744168 -0.32519084 1.7500001
-0.044067919 -0.32974958 1.7500001
-0.072805993 -0.31820801 1.7590002
-0.065868445 -0.31461942 1.7565455
-0.056224581 -0.31379399 1.7500001
-0.0065848618 -0.31556681 1.7500001
0.0075979168 -0.31151459 1.7500001
0.012156667 -0.31151459 1.7500001
-0.065606922 -0.30462149 1.757
-0.054705005 -0.30543625 1.7500001
-0.047107086 -0.30543625 1.7500001
-0.0075979168 -0.30543625 1.7500001
0.0075979172 -0.30543625 1.7500001
0.013676249 -0.3045679 1.7500001
-0.065340601 -0.29524487 1.7580999
-0.054705005 -0.29479918 1.7500001
-0.044371836 -0.29571095 1.7500002
-0.03647 -0.29024044 1.7500001
0.0058612498 -0.29327962 1.7500001
0.014162451 -0.29549551 1.7520771
-0.07300964 -0.28501254 1.7590001
-0.065678127 -0.28562349 1.7589999
-0.054705005 -0.28416207 1.7500001
-0.047107086 -0.28416207 1.7500001
-0.033937361 -0.28314903 1.7500001
-0.028872084 -0.28112292 1.7500001
0.0049386458 -0.28378221 1.7500001
0.013704904 -0.28464922 1.753
-0.073315121 -0.27645907 1.7589999
-0.065400414 -0.27534828 1.7590001
-0.055126004 -0.27489987 1.752077
-0.044067919 -0.27504459 1.7500001
-0.03495042 -0.27504459 1.7500001
-0.026701253 -0.27461043 1.7500001
0.0049386458 -0.2746647 1.7500001
0.013676249 -0.27504459 1.7500001
-0.071512245 -0.2647416 1.7522501
-0.065878108 -0.2644406 1.7563
-0.054810502 -0.26488814 1.7532142
-0.044067919 -0.26592708 1.7500001
-0.03495042 -0.26592708 1.7500001
-0.025832919 -0.26592711 1.7500001
-0.00455875 -0.26288792 1.7500001
0.00455875 -0.26592711 1.7500001
0.015221233 -0.26550528 1.7522501
-0.071787722 -0.25660291 1.7590001
-0.065296277 -0.25545737 1.7589999
-0.054574348 -0.25524071 1.7569232
-0.044067919 -0.25529003 1.7500001
-0.034950417 -0.25529 1.7500001
-0.025832916 -0.25529 1.7500001
-0.013068417 -0.25741741 1.7500002
-0.00455875 -0.25529 1.7500001
0.00455875 -0.25528997 1.7500001
0.013683415 -0.25539878 1.7507501
-0.053458937 -0.24591115 1.7589999
-0.04417038 -0.24520694 1.7540001
-0.034972128 -0.24479097 1.751
-0.026212815 -0.24465293 1.7500001
-0.019754583 -0.24161376 1.7500001
-0.0030391666 -0.24541272 1.7500001
0.00455875 -0.24465293 1.7500001
0.013713589 -0.2453502 1.755
-0.053458933 -0.23521936 1.7590002
-0.044294555 -0.23521934 1.7590002
-0.035332482 -0.23540899 1.7536001
-0.026212815 -0.23591532 1.7500001
0.0051665837 -0.23735893 1.7500002
0.014926302 -0.23602152 1.7536001
0.025899345 -0.23462151 1.7545
0.03351289 -0.23614109 1.7545002
-0.062623337 -0.22758237 1.7590001
-0.054986332 -0.22452758 1.7590002
-0.044148669 -0.22376169 1.753
-0.03467413 -0.22448392 1.7500001
-0.02785903 -0.22591138 1.7500001
0.019754583 -0.2294571 1.7500001
0.022793751 -0.2294571 1.7500001
-0.05456977 -0.21564089 1.7590001
-0.044173852 -0.21474928 1.7540001
-0.03647 -0.21426125 1.7500001
-0.050404146 -0.20467138 1.7590001
-0.044276971 -0.20458215 1.7582501
-0.03495042 -0.20514375 1.7500001
-0.053458944 -0.19627067 1.7590001
-0.044294555 -0.19397958 1.7589999
-0.034972124 -0.19613653 1.751
-0.028872084 -0.19298708 1.7500001
-0.042548336 -0.18690875 1.7500001
-0.034950417 -0.18777709 1.7500001
-0.028872084 -0.18538916 1.7500001
-0.073690243 -0.3761273 1.7680001
-0.085460216 -0.34542301 1.7680001
-0.084436737 -0.3346765 1.7680001
-0.082133912 -0.32469761 1.7680001
-0.078295879 -0.32239482 1.7680001
-0.081366308 -0.31778917 1.7680001
-0.075225458 -0.31523046 1.768
-0.072155029 -0.3085779 1.7680001
-0.07522545 -0.29117879 1.7680001
0.019957773 -0.29476097 1.7680001
0.019957773 -0.28401446 1.7680001
0.024563413 -0.28247926 1.7680001
0.019957773 -0.27480319 1.7680001
0.026098626 -0.27480322 1.7679999
0.026098626 -0.26559189 1.7679999
-0.066014178 -0.25126326 1.7680001
-0.05987332 -0.25023979 1.7680001
0.019957773 -0.25484544 1.7680001
0.026098626 -0.25484541 1.7679998
0.032239482 -0.2533102 1.7680001
-0.064478964 -0.24409895 1.768
-0.059873324 -0.24409892 1.7680001
0.019957773 -0.24409892 1.7680001
0.026098628 -0.24409893 1.7679999
0.032239482 -0.24409895 1.7680001
-0.064478964 -0.23488764 1.768
-0.059873324 -0.23488764 1.7680001
-0.065502442 -0.22516464 1.768
-0.06396722 -0.21595335 1.768
-0.057570502 -0.21109183 1.7680001
-0.05526768 -0.20479746 1.7679999
-0.050662041 -0.1949721 1.7680001
-0.084866561 -0.36261168 1.7770001
-0.087181106 -0.35721111 1.7770001
-0.087952621 -0.34409532 1.7770001
-0.087952621 -0.3348372 1.7770001
-0.086409591 -0.32557899 1.7770001
-0.083323531 -0.31786382 1.7770001
-0.077151418 -0.31169173 1.7770001
-0.072522335 -0.30397657 1.7770001
-0.084866561 -0.29471841 1.7770001
-0.075608388 -0.29626143 1.7770001
0.023916941 -0.29394692 1.7770001
0.024688454 -0.28854629 1.7770001
-0.069436274 -0.25151363 1.7770001
-0.072522335 -0.24688454 1.7770001
-0.069436274 -0.24534149 1.7770001
-0.069436274 -0.23762637 1.7770001
-0.069436274 -0.22373912 1.7770001
-0.10080482 -0.37065157 1.7860001
-0.093981102 -0.37251261 1.786
-0.10080482 -0.36289734 1.7860001
-0.094601452 -0.36444819 1.7860001
-0.10080482 -0.35824481 1.7860001
-0.094601445 -0.35514313 1.7860001
-0.093360774 -0.34707874 1.786
-0.092533648 -0.33498216 1.7860001
-0.091499761 -0.3256771 1.7860001
-0.088398069 -0.32257542 1.7860001
-0.083745539 -0.31482121 1.7860001
-0.077542171 -0.30551612 1.7860001
0.02326265 -0.30241445 1.7860001
-0.079093009 -0.29931277 1.7860001
-0.075991325 -0.26209253 1.7860001
-0.072889641 -0.25433832 1.7860001
-0.072889641 -0.24348241 1.7860001
-0.098195478 -0.38187131 1.7950001
-0.10380664 -0.3750132 1.7950001
-0.097156368 -0.37771487 1.7950001
-0.11066475 -0.36472607 1.7950001
-0.10546921 -0.36524561 1.7950001
-0.11066475 -0.3522568 1.7950001
-0.10443011 -0.35381544 1.7950001
-0.10353944 -0.34490886 1.7950001
-0.096636824 -0.3444635 1.7950001
-0.10131279 -0.33822888 1.7950001
-0.097416148 -0.33433223 1.7950001
-0.095078163 -0.32653892 1.7950001
-0.091960847 -0.31952497 1.7950001
-0.08650554 -0.31484899 1.7950001
-0.083648004 -0.30289927 1.7950001
-0.076374263 -0.25717863 1.7950001
-0.10495371 -0.38221952 1.8040001
-0.11121961 -0.37282068 1.8040001
-0.10808666 -0.37752008 1.8040001
-0.11487472 -0.36394396 1.804
-0.12061845 -0.35245651 1.8040001
-0.11524769 -0.35603705 1.804
-0.11330823 -0.34723493 1.804
-0.10808666 -0.34462416 1.8040001
-0.10405859 -0.33589667 1.804
-0.10182077 -0.32739294 1.8040001
-0.097121343 -0.32426 1.8040001
-0.092421927 -0.31642762 1.8040001
-0.088244669 -0.31277251 1.8040003
-0.084589556 -0.30702877 1.8040001
-0.11183613 -0.38433826 1.8140001
-0.10632308 -0.38827613 1.8140001
-0.12128707 -0.37016183 1.8140001
-0.1156165 -0.37457225 1.8140001
-0.12128707 -0.3638612 1.8140001
-0.12317725 -0.35441026 1.8140001
-0.12207465 -0.34574687 1.8140001
-0.11603654 -0.34390923 1.8140001
-0.12128707 -0.33865869 1.8140001
-0.11498644 -0.33739856 1.8140001
-0.10789824 -0.33472079 1.8140001
-0.10396034 -0.32763261 1.8140001
-0.099234872 -0.32290712 1.8140001
-0.095559508 -0.31555638 1.8140001
-0.089783929 -0.31030586 1.8140001
-0.086633623 -0.30715555 1.8140001
-0.11403649 -0.3912085 1.8240001
-0.10717317 -0.39543208 1.824
-0.12195569 -0.38328928 1.8240001
-0.11720416 -0.38487312 1.8240002
-0.13145873 -0.3722024 1.8240001
-0.12512337 -0.37537006 1.8240002
-0.118788 -0.37853777 1.8240001
-0.13225065 -0.36507514 1.8240001
-0.1267072 -0.36586705 1.8240002
-0.13145873 -0.35530815 1.824
-0.12829104 -0.35478014 1.8240001
-0.13145873 -0.34527713 1.8240001
-0.1267072 -0.34369329 1.8240002
-0.12406748 -0.33524618 1.8240002
-0.11562032 -0.33328515 1.8240002
-0.10928496 -0.33102256 1.8240001
-0.11245264 -0.3278549 1.8240001
-0.10548375 -0.32532075 1.8240001
-0.1029496 -0.31835184 1.8240001
-0.098990008 -0.31439224 1.8240001
-0.09344656 -0.3088488 1.824
-0.11300751 -0.40268874 1.8330001
-0.10743672 -0.40507621 1.8330001
-0.13210736 -0.3931388 1.8330001
-0.12574075 -0.3931388 1.8330001
-0.11619081 -0.39685264 1.8330001
-0.1098242 -0.39950541 1.8330001
-0.14484061 -0.38040555 1.8330001
-0.13392641 -0.38358885 1.8330001
-0.1269345 -0.38637426 1.8330001
-0.14324895 -0.37403893 1.8330001
-0.1362002 -0.37449369 1.8330001
-0.14324895 -0.36448905 1.8330001
-0.13720067 -0.36448902 1.8329999
-0.14245312 -0.35573488 1.8330001
-0.1362002 -0.35493904 1.8330001
-0.14165729 -0.34698081 1.8330001
-0.13582124 -0.34538916 1.8330001
-0.1329032 -0.33663505 1.8330001
-0.12786295 -0.33371702 1.8330001
-0.12510408 -0.32819927 1.8329999
-0.11619083 -0.32628927 1.8330001
-0.1087631 -0.32416704 1.8330001
-0.11300751 -0.31992266 1.8330001
-0.10573137 -0.3162846 1.8330001
-0.093907654 -0.30718943 1.8330001
-0.13602877 -0.3920829 1.8430001
-0.12482639 -0.39848426 1.8430001
-0.15203215 -0.38248086 1.8430001
-0.14563079 -0.38514808 1.8430001
-0.13816254 -0.38781533 1.8430001
-0.15203215 -0.37607953 1.8430001
-0.14883147 -0.37607956 1.8430001
-0.15363248 -0.36487716 1.8430002
-0.14883147 -0.36487713 1.8430001
-0.15443265 -0.35367477 1.8430001
-0.14723113 -0.35367477 1.8430001
-0.14483063 -0.34487295 1.8430001
-0.13922943 -0.34247243 1.8430001
-0.14243011 -0.33607107 1.8430001
-0.13656221 -0.33447072 1.8430001
-0.13282809 -0.32806936 1.8430001
-0.12505502 -0.32441145 1.8430002
-0.1168247 -0.32166803 1.8430001
-0.11362401 -0.31740046 1.8430001
-0.10615578 -0.31313288 1.8430001
-0.15500243 -0.39206496 1.853
-0.14642097 -0.39206496 1.853
-0.13998489 -0.39421031 1.853
-0.15607511 -0.38409644 1.8529999
-0.15714778 -0.37543836 1.853
-0.1625112 -0.36685693 1.853
-0.15929314 -0.36524794 1.853
-0.1567187 -0.3555938 1.853
-0.15561537 -0.34685913 1.8529999
-0.14803 -0.34433064 1.853
-0.14695731 -0.33628556 1.853
-0.13998489 -0.33306751 1.853
-0.14458208 -0.32571197 1.8529999
-0.13596234 -0.32622918 1.8529999
-0.12389467 -0.32099983 1.853
-0.11424054 -0.31536826 1.853
-0.16177049 -0.39472002 1.863
-0.15206426 -0.39633775 1.863
-0.14397575 -0.39633775 1.863
-0.16338821 -0.38469025 1.8630002
-0.17309444 -0.37045446 1.863
-0.16662362 -0.37368989 1.863
-0.17471214 -0.36398366 1.863
-0.16702804 -0.36357921 1.863
-0.17503569 -0.3549245 1.8630002
-0.16616142 -0.35520178 1.863
-0.16123126 -0.3445712 1.863
-0.15583892 -0.34241423 1.863
-0.15368199 -0.33486491 1.863
-0.15125541 -0.32596755 1.863
-0.14289728 -0.32300177 1.863
-0.13426952 -0.32192332 1.863
-0.15044656 -0.31868789 1.863
-0.14397575 -0.31707016 1.863
-0.13426952 -0.31868789 1.863
-0.12456328 -0.31868789 1.863
-0.18215549 -0.36431098 1.8730001
-0.18323976 -0.35672119 1.8730001
-0.17077078 -0.35292628 1.8730001
-0.167518 -0.35292628 1.8730001
-0.16534948 -0.34642074 1.8730001
-0.16101246 -0.33828878 1.8730001
-0.15775967 -0.33178324 1.8730001
-0.15450689 -0.32365128 1.8730001
-0.15125412 -0.31714574 1.8730001
-0.18803325 -0.36298591 1.8830001
-0.15533182 -0.31883898 1.8830001
