# .PCD v0.7 - Point Cloud Data file format
VERSION 0.7
FIELDS x y z
SIZE 4 4 4
TYPE F F F
COUNT 1 1 1
WIDTH 1516
HEIGHT 1
VIEWPOINT 0 0 0 1 0 0 0
POINTS 1516
DATA ascii
0.48464832 -0.094860002 1.589
0.49580157 -0.095664859 1.5890001
0.50086075 -0.095204934 1.5890001
0.47503909 -0.084955119 1.5890001
0.48435691 -0.084557146 1.5876669
0.49350193 -0.083246827 1.5890001
0.45946732 -0.070368864 1.5890001
0.46616909 -0.073522642 1.589
0.47490814 -0.074405402 1.5885297
0.48514542 -0.074476548 1.5863335
0.49313402 -0.073680341 1.5890001
0.45640114 -0.064543121 1.589
0.46498644 -0.064849742 1.589
0.47528416 -0.064606972 1.5878574
0.48553157 -0.064995095 1.5858001
0.49396184 -0.064849742 1.5890001
0.45762762 -0.055651195 1.589
0.46498641 -0.055191267 1.5890001
0.47535139 -0.055364162 1.5877371
0.48456243 -0.054636139 1.5822308
0.49513498 -0.055168692 1.5883335
0.50086075 -0.052431703 1.5890001
0.45858184 -0.044466801 1.5868183
0.46590629 -0.043693088 1.589
0.4746449 -0.044153009 1.5890002
0.48507842 -0.044399336 1.5879334
0.49439582 -0.045124859 1.5842001
0.50440878 -0.044350125 1.589
0.45808756 -0.034494542 1.5890001
0.46498644 -0.034494542 1.589
0.4746449 -0.034494545 1.5890001
0.48543251 -0.034875806 1.5871539
0.49422064 -0.035693709 1.581
0.50427997 -0.035366669 1.5831819
0.45808756 -0.024836071 1.589
0.46510005 -0.024410089 1.5867144
0.47438127 -0.025187125 1.5861428
0.485071 -0.024801334 1.5870001
0.49486277 -0.02519911 1.5882728
0.50411642 -0.025961572 1.5876669
0.45836347 -0.015729513 1.5890001
0.46491697 -0.015392471 1.5853637
0.47427589 -0.014860657 1.585
0.48508522 -0.015421521 1.5882728
0.4666422 -0.0063469955 1.5890001
0.47492084 -0.0057950835 1.5890002
0.48540723 -0.0052431701 1.5890002
0.47878426 0.0013797818 1.5890001
0.48513126 0.0041393447 1.589
0.46498644 0.015177599 1.5890001
0.48154381 0.028975416 1.5890001
0.49423781 0.026767764 1.5890001
0.48871869 0.035046455 1.5890001
0.49396184 0.034494545 1.5890001
0.48982251 0.044153012 1.5890001
0.4936859 0.042221319 1.5890001
0.47119546 0.065539636 1.5890001
0.46774599 0.077267773 1.5890001
0.47447634 0.074663162 1.5858889
0.48471245 0.075449392 1.5863333
0.49492583 0.076506056 1.582778
0.50372541 0.078449577 1.585
0.41807386 0.089685813 1.5890001
0.42654762 0.089535296 1.5863334
0.4343051 0.087849453 1.5858001
0.44305924 0.088374123 1.5867144
0.45677984 0.08915063 1.5876669
0.46559557 0.085027136 1.5853078
0.47500092 0.080997266 1.5810001
0.48323792 0.080997266 1.5810001
0.50932181 0.080997266 1.5810001
0.5156768 0.08387956 1.5836668
0.52415419 0.084439836 1.5867144
0.53121597 0.088306025 1.5890001
0.40574288 0.096178122 1.5880001
0.41553256 0.095653772 1.5863335
0.42554969 0.09551163 1.5850002
0.43451509 0.094777338 1.581889
0.44387677 0.094019122 1.5817275
0.45578122 0.09335278 1.5810002
0.46264541 0.09335278 1.5810001
0.52714741 0.095528394 1.5830002
0.53563124 0.095204934 1.589
0.54501384 0.096584715 1.5890001
0.55053288 0.096584722 1.5890001
0.40440807 0.1012167 1.5823336
0.41185051 0.10021695 1.5810001
0.42695168 0.10021695 1.581
0.43701914 0.10113218 1.581
0.442249 0.10374709 1.5810002
0.52848476 0.1023901 1.5863334
0.53601408 0.10335053 1.5831821
0.54391414 0.10086751 1.5826002
0.55328375 0.10147025 1.5863334
0.44479853 0.11119964 1.5810001
0.43308127 -0.49267325 1.5960001
0.42823076 -0.48920861 1.5960001
0.43337822 -0.48604092 1.596
0.43516004 -0.47604293 1.5960001
0.43516007 -0.46611094 1.5960001
0.43654591 -0.4573338 1.5960001
0.43654591 -0.4337742 1.5960001
0.42823076 -0.42545903 1.5960001
0.43238831 -0.42545906 1.5960001
0.41714388 -0.41437215 1.5960001
0.42615196 -0.41852975 1.5960001
0.43488288 -0.41603523 1.596
0.43608394 -0.40420917 1.5960001
0.44208935 -0.40882871 1.5960001
0.4545621 -0.406057 1.5960001
0.43689239 -0.39531657 1.596
0.44208935 -0.39219838 1.5960001
0.43689239 -0.38630849 1.596
0.44208935 -0.3811115 1.5960001
0.43931761 -0.37464416 1.5960001
0.44208935 -0.37418219 1.5960001
0.43654594 -0.36448118 1.596
0.44375238 -0.3633725 1.5960001
0.45179039 -0.36170948 1.5960001
0.435754 -0.35458216 1.5960001
0.44486108 -0.35450301 1.596
0.45132843 -0.35570407 1.5960001
0.42823076 -0.34785086 1.5960001
0.43765464 -0.34618783 1.5960001
0.44347519 -0.34577206 1.5960001
0.45040452 -0.34785086 1.5960001
0.42823076 -0.33953571 1.5960001
0.43685389 -0.33676398 1.596
0.43723887 -0.32429123 1.5960001
0.43432856 -0.31348151 1.5960001
0.42823076 -0.30073163 1.5960001
0.43516004 -0.30442724 1.5960001
0.44347522 -0.30350336 1.5960001
0.42823076 -0.29518819 1.5960001
0.43528605 -0.29544017 1.596
0.44430676 -0.29574254 1.5960001
0.45132843 -0.29334036 1.5960001
0.44763279 -0.28548717 1.5960001
0.45095888 -0.28631869 1.5960001
0.31736195 -0.27717203 1.5960001
0.32345971 -0.27523181 1.5960001
0.33537814 -0.27116659 1.5960001
0.34785086 -0.27024272 1.5960001
0.44763279 -0.27486226 1.5960001
0.4515132 -0.27634051 1.5960001
0.33537811 -0.26747099 1.5960001
0.34507912 -0.26469928 1.596
0.35431823 -0.26469928 1.596
0.36448121 -0.26192755 1.5960001
0.44763279 -0.26331341 1.5960001
0.45040452 -0.26469928 1.5960001
0.5067628 -0.26377538 1.5960001
0.34785086 -0.2536124 1.5960001
0.35838339 -0.25582975 1.5960001
0.36475834 -0.25582981 1.596
0.37224203 -0.25444394 1.596
0.44707841 -0.25416675 1.5960001
0.45040452 -0.25499827 1.5960001
0.50639325 -0.25693846 1.5960001
0.51138234 -0.25222653 1.5960001
0.37477615 -0.24569318 1.596
0.44763279 -0.24668309 1.5960001
0.45352274 -0.24495074 1.596
0.51276821 -0.24529721 1.5960001
0.35062259 -0.23698206 1.5960001
0.36725292 -0.23143862 1.5960001
0.37418219 -0.23559619 1.596
0.4546881 -0.23547024 1.596
0.46149141 -0.23698206 1.5960001
0.50861061 -0.23282447 1.5960001
0.51230627 -0.23882987 1.5960001
0.36725292 -0.22312345 1.5960001
0.37487513 -0.22346991 1.596
0.3811115 -0.22035174 1.5960001
0.45594791 -0.22450934 1.5960001
0.46149141 -0.22450931 1.5960001
0.50861061 -0.22728103 1.5960001
0.51138234 -0.22173759 1.5960001
0.21758002 -0.21203658 1.5960001
0.22035174 -0.21203658 1.5960001
0.35062259 -0.21203658 1.5960001
0.36614424 -0.2148083 1.5960001
0.3724499 -0.21515478 1.596
0.45502409 -0.2148083 1.596
0.46149144 -0.2148083 1.5960001
0.2268191 -0.20649314 1.5960001
0.23236252 -0.20603119 1.5960001
0.34715796 -0.20372142 1.5960001
0.35458216 -0.20807698 1.596
0.36378828 -0.20857193 1.5960001
0.37002462 -0.20926486 1.5960001
0.45515603 -0.20550321 1.5960001
0.46149141 -0.20649314 1.5960001
0.34618783 -0.19596061 1.5960001
0.45673987 -0.19580224 1.596
0.46426311 -0.19448237 1.5960001
0.51230627 -0.19355845 1.5960001
0.23975378 -0.18986283 1.5960001
0.24668309 -0.18154767 1.5960001
0.25084066 -0.18154767 1.5960001
0.31520614 -0.18462735 1.596
0.32290539 -0.18397292 1.596
0.33537814 -0.18431938 1.596
0.3445248 -0.18764547 1.5960001
0.45816535 -0.18653676 1.5960001
0.46426314 -0.18542807 1.596
0.5074228 -0.1851113 1.596
0.51230627 -0.18570524 1.5960001
0.52246922 -0.18154767 1.5960001
0.24668309 -0.17877595 1.5960001
0.25084066 -0.17877595 1.5960001
0.29795989 -0.17877595 1.5960001
0.30535114 -0.1773901 1.5960001
0.31320435 -0.17877595 1.5960001
0.32844883 -0.17877595 1.5960001
0.45871967 -0.17046079 1.5960001
0.46401119 -0.17474437 1.596
0.49752375 -0.17046079 1.5960001
0.50429904 -0.17384845 1.596
0.51613384 -0.17501435 1.5960001
0.52246922 -0.17600423 1.5960001
0.30904678 -0.16491735 1.5960001
0.45761099 -0.1654717 1.5960001
0.46457106 -0.16460937 1.596
0.49567595 -0.16399343 1.5960001
0.50407511 -0.16466537 1.596
0.5147084 -0.16519453 1.596
0.45871964 -0.15660219 1.5960001
0.46564898 -0.15521631 1.5960002
0.47368699 -0.15493916 1.5960001
0.50742275 -0.15581025 1.596
0.51390213 -0.15483835 1.596
0.4673813 -0.14586177 1.596
0.50500739 -0.14496097 1.596
0.51415408 -0.14551532 1.596
0.4674308 -0.13522033 1.596
0.48754558 -0.13442843 1.5960001
0.49475202 -0.13581426 1.5960001
0.50445306 -0.13581426 1.5960002
0.51257026 -0.13601227 1.596
0.46822268 -0.12532134 1.596
0.47465706 -0.12368801 1.596
0.48920861 -0.12749913 1.5960001
0.49475205 -0.12888499 1.5960001
0.50368315 -0.12549734 1.596
0.51138234 -0.12888499 1.5960001
0.46772778 -0.11433345 1.5960001
0.4761419 -0.11542235 1.596
0.5041759 -0.11447205 1.5960001
0.46795878 -0.10486341 1.596
0.47534999 -0.10532536 1.596
0.48551297 -0.1030156 1.5960001
0.50549245 -0.10532537 1.596
0.51461601 -0.10209169 1.5960001
0.46678287 -0.094364472 1.596
0.47534996 -0.094931416 1.596
0.48920861 -0.094238482 1.5960001
0.49429011 -0.093314566 1.5960001
0.50519931 -0.093705453 1.5960001
0.51359975 -0.094515644 1.596
0.46703485 -0.083844535 1.596
0.48920861 -0.087309182 1.5960001
0.49544498 -0.085923322 1.5960001
0.504453 -0.084537469 1.5960001
0.51276821 -0.084537469 1.5960001
0.455255 -0.073681556 1.5960001
0.46391666 -0.076222293 1.596
0.49752375 -0.076222301 1.5960001
0.5038591 -0.074638464 1.5960001
0.51138234 -0.077608161 1.5960001
0.44763279 -0.065135419 1.5960001
0.4522523 -0.065597378 1.5960001
0.50445306 -0.065135427 1.5960001
0.45292425 -0.055056442 1.596
0.50639325 -0.055988748 1.596
0.45410013 -0.043885574 1.596
0.5072248 -0.048505101 1.5960001
0.51276821 -0.041575801 1.5960001
0.45317623 -0.034646496 1.596
0.51415408 -0.0346465 1.5960001
0.45410013 -0.025407432 1.596
0.50399107 -0.0207879 1.5960001
0.51323014 -0.024021573 1.5960001
0.4566409 -0.014551531 1.5960001
0.49554396 -0.0148485 1.596
0.50445306 -0.015244458 1.5960001
0.51138234 -0.01801618 1.5960001
0.45569599 -0.0049135038 1.596
0.46426314 -0.0051654782 1.596
0.47257829 -0.00138586 1.5960001
0.49567592 -0.0060053933 1.596
0.5038591 -0.0057414202 1.5960001
0.44486108 0.00415758 1.5960001
0.45456207 0.0055434401 1.5960002
0.46564904 0.0055434401 1.5960002
0.47534993 0.0055434401 1.5960001
0.48445708 0.0073252604 1.596
0.4953064 0.0060977843 1.596
0.50168133 0.0055434401 1.596
0.4545621 0.015244459 1.5960001
0.46552297 0.01524446 1.596
0.47535002 0.015244461 1.596
0.48505104 0.015244458 1.5960001
0.49475205 0.015244461 1.596
0.50029546 0.015244461 1.5960001
0.44763279 0.0207879 1.5960001
0.45544404 0.023559619 1.596
0.46537182 0.025037874 1.5960002
0.47535002 0.024945481 1.5960001
0.48514345 0.024668306 1.5960002
0.49356416 0.023559619 1.596
0.50029546 0.024945481 1.5960001
0.46703482 0.0346465 1.596
0.47673583 0.0346465 1.5960001
0.48421949 0.034369327 1.596
0.50399107 0.035570405 1.596
0.45871967 0.048505101 1.5960001
0.46624297 0.044743482 1.5960001
0.47596592 0.045425415 1.596
0.48505104 0.044347528 1.5960002
0.49475202 0.046287723 1.5960001
0.50425506 0.043753587 1.5960001
0.46592614 0.055342015 1.5960002
0.47535002 0.055434406 1.5960001
0.48445708 0.055038441 1.5960001
0.49444404 0.054356515 1.596
0.50195849 0.054048546 1.5960001
0.51138234 0.056820262 1.5960001
0.46782675 0.064739466 1.596
0.47701302 0.064581081 1.5960001
0.48421949 0.065412596 1.596
0.49475205 0.065481886 1.596
0.504915 0.066059329 1.596
0.51138234 0.065135419 1.5960001
0.46703485 0.074836448 1.596
0.48828471 0.071602769 1.5960001
0.49475202 0.07206472 1.5960001
0.50553095 0.072834641 1.596
0.5125702 0.075430378 1.596
0.52662683 0.078994021 1.5960001
0.41575801 0.087309182 1.5960001
0.42435035 0.085646145 1.5960001
0.4346981 0.08361356 1.596
0.44486102 0.083428778 1.5960001
0.45456207 0.084537469 1.5960001
0.46241531 0.08268965 1.5960001
0.51969749 0.081765741 1.5960001
0.52246922 0.081765741 1.5960001
0.53494197 0.085923322 1.5960001
0.54187125 0.087309182 1.5960001
0.40605697 0.092298284 1.5960001
0.41381782 0.091189586 1.5960001
0.42712206 0.092298284 1.5960001
0.53817564 0.091004811 1.5960001
0.54464298 0.09146677 1.5960001
0.55572987 0.094931409 1.596
0.43289283 -0.48393059 1.603
0.43428478 -0.47604293 1.603
0.43567672 -0.46212354 1.603
0.43567672 -0.44402835 1.603
0.43498075 -0.43567669 1.603
0.41897345 -0.41062182 1.603
0.42515987 -0.41433367 1.6029999
0.43242887 -0.41247773 1.603
0.42662913 -0.40575007 1.603
0.43122253 -0.40505409 1.603
0.42732507 -0.39809436 1.603
0.43196487 -0.39515582 1.6029999
0.43408591 -0.38516924 1.6029999
0.43660468 -0.37628734 1.6029999
0.44124445 -0.37443143 1.603
0.43289283 -0.36190397 1.603
0.43289283 -0.35494429 1.603
0.45655578 -0.35494429 1.603
0.43527898 -0.34579724 1.6029999
0.45655578 -0.34937653 1.603
0.42732507 -0.33545715 1.603
0.43382081 -0.33545715 1.6029999
0.43400639 -0.32460004 1.6029999
0.43498075 -0.31736195 1.603
0.43289283 -0.30761838 1.603
0.43456316 -0.2914719 1.603
0.44458508 -0.2920287 1.603
0.3187539 -0.28534737 1.603
0.32555893 -0.28472871 1.6029999
0.33267328 -0.28256348 1.603
0.34102491 -0.28256348 1.603
0.42732507 -0.28813124 1.603
0.43637267 -0.28743526 1.603
0.44402832 -0.28534734 1.6029999
0.32766229 -0.27866608 1.603
0.33545712 -0.27699575 1.6029999
0.34520072 -0.27532545 1.6029999
0.35454658 -0.27341649 1.6029999
0.36385268 -0.27198476 1.603
0.44611624 -0.2759518 1.6029999
0.36468789 -0.26725215 1.6029999
0.37554497 -0.26391152 1.6029999
0.38371101 -0.26122043 1.603
0.44557491 -0.26400432 1.6029999
0.51084137 -0.26168442 1.603
0.37930322 -0.25542071 1.603
0.38521898 -0.25437674 1.6029999
0.39113468 -0.25333279 1.603
0.44368032 -0.25507271 1.6029999
0.37999919 -0.24358922 1.603
0.38556695 -0.24498115 1.603
0.39169151 -0.24470277 1.603
0.44509906 -0.24487408 1.603
0.37999919 -0.23523758 1.603
0.38556692 -0.2352376 1.6029999
0.39312318 -0.23483989 1.6029999
0.44716021 -0.23558557 1.6029999
0.45237997 -0.23384565 1.603
0.51455325 -0.23430963 1.603
0.37999919 -0.22688596 1.603
0.38582003 -0.22587362 1.6029999
0.39415058 -0.22503002 1.603
0.44616979 -0.2247445 1.603
0.45237997 -0.22549401 1.603
0.51362526 -0.22827789 1.603
0.21714237 -0.2101827 1.603
0.22410208 -0.2101827 1.603
0.37840843 -0.21296656 1.6029999
0.38556692 -0.21435851 1.603
0.39336175 -0.21742077 1.603
0.44638392 -0.2146797 1.603
0.45237997 -0.21714237 1.603
0.21742077 -0.2051717 1.603
0.22410208 -0.20461494 1.6029999
0.35534197 -0.20381951 1.6029999
0.36524463 -0.20405814 1.6029999
0.37582335 -0.20461495 1.603
0.38556695 -0.20739882 1.603
0.44760761 -0.20501263 1.6029999
0.45237997 -0.20322299 1.603
0.22688596 -0.19705871 1.6029999
0.23662952 -0.1920875 1.603
0.34937653 -0.19347943 1.603
0.35494426 -0.19487137 1.603
0.36329591 -0.19657263 1.6029999
0.37303948 -0.19904719 1.603
0.44706532 -0.19525099 1.6029999
0.45357308 -0.19427483 1.6029999
0.51919299 -0.19069555 1.603
0.23802146 -0.18791167 1.603
0.2417333 -0.18512781 1.603
0.33824101 -0.18234393 1.603
0.34659266 -0.18393472 1.6029999
0.35355234 -0.18512779 1.603
0.44760761 -0.18552552 1.6029999
0.45516384 -0.18512779 1.6029999
0.5180794 -0.18568459 1.603
0.52197689 -0.18234393 1.603
0.2463731 -0.17770414 1.603
0.25379679 -0.17492025 1.603
0.29857078 -0.17399229 1.603
0.30483449 -0.17287874 1.603
0.31527403 -0.17422427 1.603
0.3250176 -0.17608021 1.603
0.33545718 -0.17816812 1.603
0.34380877 -0.17886409 1.603
0.44820416 -0.17538422 1.6029999
0.45516384 -0.17538424 1.603
0.4607316 -0.17677617 1.603
0.5119549 -0.17343552 1.603
0.24915697 -0.1670326 1.603
0.25402874 -0.16772857 1.603
0.29926676 -0.16842455 1.603
0.30594805 -0.16675422 1.603
0.31532758 -0.1647841 1.603
0.32265133 -0.16341357 1.603
0.44820416 -0.16424873 1.6029999
0.4546071 -0.16369197 1.6029999
0.51084137 -0.16842455 1.603
0.32710552 -0.15728904 1.603
0.44959608 -0.15450518 1.603
0.45516384 -0.15450516 1.6029999
0.4607316 -0.15172128 1.603
0.45541695 -0.14514123 1.6029999
0.46295866 -0.14420483 1.6029999
0.51919299 -0.14058578 1.603
0.45516384 -0.13501802 1.6029999
0.46316749 -0.13467005 1.6029999
0.51849699 -0.13501802 1.603
0.52197689 -0.13501804 1.603
0.44866815 -0.12434649 1.603
0.45516384 -0.12527446 1.603
0.46351549 -0.12527446 1.603
0.47186711 -0.12109864 1.603
0.50638717 -0.12499607 1.603
0.51514369 -0.12489485 1.6029999
0.52197689 -0.12945026 1.603
0.44720992 -0.11632627 1.6029999
0.45516384 -0.11553089 1.6029999
0.46351543 -0.11553089 1.6029999
0.47325903 -0.11553089 1.603
0.50805753 -0.11831477 1.603
0.51418197 -0.11525249 1.6029999
0.44720992 -0.10598617 1.6029999
0.45541695 -0.10591386 1.6029999
0.46326235 -0.10616694 1.6029999
0.47465098 -0.10996313 1.603
0.50805753 -0.10996313 1.603
0.51501721 -0.10810721 1.603
0.52476078 -0.10300343 1.603
0.44569865 -0.094373412 1.6030002
0.45516387 -0.094651811 1.603
0.46320614 -0.094497144 1.6029999
0.51919299 -0.093259871 1.603
0.5238328 -0.095115788 1.6029999
0.43679029 -0.084351465 1.603
0.44542027 -0.084908247 1.603
0.45516384 -0.084908247 1.6029999
0.46311778 -0.085703634 1.6029999
0.51919299 -0.084908247 1.603
0.52336884 -0.084908247 1.603
0.43726751 -0.075761214 1.6029999
0.44542027 -0.075164676 1.6030002
0.45446789 -0.078644514 1.603
0.5159452 -0.074932687 1.603
0.52316999 -0.075761214 1.6029999
0.43846059 -0.065421104 1.603
0.4450407 -0.065421104 1.6029999
0.5164091 -0.065421104 1.6029999
0.52197689 -0.065421104 1.603
0.43706867 -0.057069477 1.603
0.44542027 -0.055677537 1.6030002
0.5164091 -0.055677537 1.603
0.52336884 -0.051501721 1.603
0.43660471 -0.044078052 1.603
0.4454203 -0.04454203 1.6030002
0.45237997 -0.045933966 1.603
0.5170278 -0.045624651 1.6029999
0.52290487 -0.045469984 1.603
0.43706867 -0.034798458 1.603
0.44542027 -0.034798458 1.603
0.51919299 -0.034798458 1.603
0.52197689 -0.036190398 1.603
0.43706867 -0.025054893 1.6029999
0.4454203 -0.025054891 1.6030002
0.45237997 -0.023662953 1.603
0.51919299 -0.025054891 1.603
0.43647212 -0.015709018 1.6029999
0.44542027 -0.015311322 1.603
0.45377192 -0.015311322 1.603
0.51675713 -0.014963338 1.6029999
0.52515841 -0.014515928 1.6029999
0.53032851 -0.013919383 1.603
0.43790379 -0.0064029163 1.603
0.44542027 -0.0055677537 1.6030002
0.45405024 -0.0069596916 1.603
0.51561373 -0.0053689056 1.603
0.52476072 -0.0055677532 1.603
0.53032851 -0.0051037739 1.603
0.43846059 0.0041758148 1.603
0.44532746 0.0056605497 1.6030002
0.50805753 0.0055677537 1.603
0.5147388 0.005289366 1.6030002
0.52476072 0.0027838768 1.603
0.44542027 0.01531132 1.603
0.50666559 0.015311322 1.603
0.51282984 0.014913626 1.6029999
0.4454203 0.025054893 1.603
0.45460707 0.028117156 1.603
0.47511497 0.025518872 1.603
0.48021874 0.023662953 1.603
0.50666559 0.025054893 1.6029999
0.51385725 0.025750861 1.603
0.52197689 0.029230706 1.603
0.4477402 0.034334477 1.603
0.45516384 0.034798458 1.6029999
0.46212351 0.034798458 1.603
0.47465098 0.034798458 1.603
0.50666559 0.032014582 1.603
0.51585233 0.034520071 1.6029999
0.52309042 0.035355233 1.603
0.54981565 0.032014582 1.603
0.44903931 0.045377191 1.603
0.45516387 0.044542026 1.603
0.46184516 0.042593312 1.603
0.47557893 0.041294172 1.603
0.50527364 0.048717842 1.603
0.51598084 0.044863246 1.603
0.52253371 0.043706864 1.603
0.4477402 0.056141514 1.6029999
0.45516387 0.055677544 1.603
0.46128836 0.055955924 1.603
0.49525166 0.0587398 1.603
0.50606906 0.056671776 1.6029999
0.51524919 0.055677533 1.603
0.52197689 0.057069469 1.603
0.44579992 0.065674186 1.6029999
0.45516384 0.065421104 1.6029999
0.46316749 0.065769091 1.6029999
0.49321017 0.063565187 1.603
0.50527364 0.062637225 1.603
0.51780105 0.065421104 1.603
0.52406478 0.06750901 1.603
0.53032851 0.066813044 1.603
0.4175815 0.079340488 1.603
0.425098 0.078226939 1.603
0.43498072 0.076324619 1.603
0.44532746 0.075443052 1.6030002
0.45516387 0.075164676 1.603
0.46295866 0.074607894 1.6029999
0.51863617 0.07432951 1.603
0.52450764 0.074785054 1.6029999
0.53199881 0.075999841 1.603
0.54146403 0.079340488 1.603
0.3994863 0.087692119 1.603
0.40561086 0.08657857 1.603
0.41433367 0.083980285 1.6029999
0.42454121 0.0835163 1.603
0.43010896 0.0835163 1.603
0.44681221 0.082124367 1.603
0.53659225 0.082820334 1.603
0.54471189 0.08490824 1.603
0.55399144 0.087692119 1.603
0.56095117 0.087692119 1.603
0.39809439 0.094651811 1.6029999
0.40282696 0.093816638 1.603
0.54981565 0.090475991 1.603
0.55538338 0.090475999 1.603
0.56234312 0.091867931 1.603
0.3994863 0.1016115 1.603
0.4022702 0.1016115 1.603
0.43505326 -0.47981757 1.6110001
0.42386216 -0.41267109 1.6110001
0.42665994 -0.4042778 1.6110001
0.43505326 -0.37630007 1.6110001
0.4574354 -0.35391793 1.6110001
0.46303093 -0.35391793 1.6110001
0.34839475 -0.29134062 1.6156667
0.35405079 -0.29223239 1.618
0.37653017 -0.29363734 1.618
0.3278054 -0.2886366 1.6110001
0.33775303 -0.28646058 1.6110001
0.34587431 -0.28502283 1.6110001
0.355216 -0.28394586 1.6122727
0.36607099 -0.28520757 1.618
0.42898577 -0.28598952 1.6145
0.43480137 -0.28481776 1.6129092
0.44158137 -0.28210846 1.6110001
0.35811457 -0.27837813 1.6110001
0.36566857 -0.27725902 1.6110001
0.37538806 -0.27594325 1.6131001
0.3848457 -0.27546695 1.615
0.39444345 -0.27361661 1.618
0.40378648 -0.27171993 1.618
0.43616927 -0.27542943 1.6160909
0.44264719 -0.27518067 1.6110001
0.37769896 -0.26998481 1.6110001
0.38509303 -0.26798639 1.6110001
0.39462888 -0.26448601 1.6115834
0.40545163 -0.26515782 1.6156667
0.41305923 -0.26553807 1.618
0.42851385 -0.26553807 1.618
0.43484128 -0.26534992 1.6142309
0.44239739 -0.2668373 1.6110001
0.39616424 -0.25543642 1.6110001
0.40567669 -0.2545971 1.6110001
0.41586918 -0.25570333 1.618
0.42476729 -0.2557033 1.618
0.4345904 -0.2551502 1.6145
0.44064879 -0.2545971 1.6110001
0.39756316 -0.24480489 1.6110001
0.40567669 -0.2448049 1.6110001
0.41557035 -0.24569333 1.6168333
0.42168975 -0.24305868 1.618
0.43552479 -0.24466836 1.6138
0.44134822 -0.24410544 1.6110001
0.39868224 -0.235479 1.6110001
0.40567666 -0.23501272 1.6110001
0.41521454 -0.23463117 1.6110001
0.4255006 -0.23451744 1.6172223
0.43485641 -0.23484823 1.6140001
0.44288701 -0.23445316 1.6110001
0.3389965 -0.22428791 1.6110001
0.34440547 -0.22522049 1.6110001
0.40605813 -0.22522046 1.6110001
0.41546884 -0.2252205 1.6110001
0.42525187 -0.22524688 1.6152
0.43427742 -0.22554767 1.6133333
0.44134822 -0.22591993 1.6110001
0.33853018 -0.21962495 1.6110001
0.34272683 -0.21962495 1.6110001
0.3962841 -0.21323004 1.6110001
0.40567669 -0.21542828 1.6110001
0.41533592 -0.21630523 1.6141112
0.42402619 -0.21748304 1.6159
0.434809 -0.2155817 1.6142668
0.44184783 -0.21482877 1.6110001
0.2163572 -0.2009573 1.6127501
0.37909785 -0.20004056 1.6110001
0.38549277 -0.20243867 1.6110001
0.39476535 -0.20395745 1.6110001
0.40486637 -0.20453002 1.6133333
0.41285852 -0.20572677 1.618
0.4365977 -0.20508881 1.6167274
0.44288701 -0.20423722 1.6110001
0.21609905 -0.19584835 1.6148889
0.22461006 -0.19441172 1.6133333
0.36650789 -0.19304612 1.6110001
0.37490118 -0.19444501 1.6110001
0.38488045 -0.19453755 1.6117778
0.39433187 -0.19506033 1.6138
0.40266246 -0.19585189 1.618
0.43729487 -0.19564116 1.618
0.44264722 -0.19404534 1.6110001
0.22338918 -0.18686013 1.618
0.23659541 -0.18530767 1.615
0.24112792 -0.18225014 1.6145
0.35711536 -0.18285426 1.6110001
0.36543265 -0.18532278 1.6135455
0.37416539 -0.18690364 1.615375
0.38402334 -0.18873341 1.618
0.39292145 -0.18873341 1.618
0.43881691 -0.18639182 1.618
0.44319221 -0.18427132 1.6110001
0.24580102 -0.1747722 1.6145
0.25389764 -0.1727623 1.6110001
0.26159149 -0.17206286 1.6110001
0.30635583 -0.17206286 1.6110001
0.32733911 -0.17206286 1.6110001
0.33661497 -0.17285423 1.6118751
0.34557715 -0.17348471 1.6148182
0.35468683 -0.17663942 1.6145
0.36107558 -0.17843035 1.618
0.43975353 -0.17421545 1.618
0.44344652 -0.17486064 1.6110001
0.24702464 -0.167641 1.6133333
0.32713929 -0.16566797 1.6110001
0.33434552 -0.16481733 1.6122727
0.34140611 -0.16438071 1.618
0.43975353 -0.16438071 1.618
0.44376567 -0.16518697 1.6121668
0.32594022 -0.15807401 1.6110001
0.33153576 -0.15807401 1.6110001
0.43975353 -0.15454596 1.618
0.44526812 -0.15476169 1.6140001
0.43975353 -0.14471124 1.618
0.44579306 -0.14506426 1.613
0.4523994 -0.14464471 1.6110001
0.43854928 -0.13427435 1.618
0.44484547 -0.13429296 1.6110001
0.45183983 -0.13569184 1.6110001
0.43788028 -0.12551005 1.618
0.44400612 -0.12478055 1.6110001
0.52493161 -0.12415105 1.6110001
0.53248113 -0.12223181 1.618
0.43975353 -0.11520699 1.618
0.44354972 -0.11452849 1.6124001
0.52483624 -0.11483574 1.6110001
0.5321216 -0.11416952 1.6152
0.43599722 -0.10459587 1.6156667
0.44428587 -0.10547594 1.6110001
0.45323876 -0.10491638 1.6110001
0.52458185 -0.10771415 1.6110001
0.53017741 -0.10631526 1.6110001
0.42870259 -0.094615519 1.6166
0.43430731 -0.095487833 1.6124001
0.44120836 -0.095963515 1.6110001
0.53017741 -0.093725301 1.6110001
0.42747986 -0.084561482 1.6141112
0.4336544 -0.085331984 1.6110001
0.44064879 -0.088129759 1.6110001
0.53222287 -0.08379434 1.6138
0.42814404 -0.075702086 1.6145
0.43412068 -0.075073496 1.6110001
0.52737963 -0.071343139 1.6110001
0.53120011 -0.075886436 1.6124001
0.42789182 -0.064535111 1.6156667
0.4347989 -0.06473022 1.6110001
0.52682006 -0.063509382 1.6110001
0.53137648 -0.063749187 1.6110001
0.42768586 -0.054688215 1.6148889
0.4342539 -0.054156832 1.6110001
0.44064879 -0.051758748 1.6110001
0.52598077 -0.055955403 1.6110001
0.53157628 -0.054556515 1.6110001
0.42773733 -0.044878293 1.6150833
0.4336544 -0.044764321 1.6110001
0.44064879 -0.046163209 1.6110001
0.52737963 -0.04196655 1.6110001
0.53137642 -0.045363843 1.6110001
0.42683586 -0.035032906 1.6138
0.4336544 -0.034972128 1.6110001
0.52668023 -0.034272686 1.6110001
0.53203171 -0.034342583 1.6145
0.42594868 -0.02522248 1.613625
0.4336544 -0.025179932 1.6110001
0.52598077 -0.02517993 1.6110001
0.53358513 -0.024789277 1.6156667
0.42491356 -0.01561232 1.6135
0.43337458 -0.014828181 1.6110001
0.52598077 -0.018185506 1.6110001
0.53681952 -0.016137324 1.61625
0.42611915 -0.0061349384 1.6149375
0.4347989 -0.0052140262 1.6110001
0.53639239 -0.0079513295 1.6156667
0.42851654 0.0045592929 1.615375
0.43476632 0.005921633 1.6115385
0.44064879 0.0069944253 1.6110001
0.52514142 0.0086730868 1.6110001
0.53356969 0.0070109242 1.6140001
0.42851382 0.016859561 1.618
0.43412089 0.015404451 1.6127501
0.44064879 0.015387735 1.6110001
0.51898634 0.01678662 1.6110001
0.52458185 0.015387735 1.6110001
0.53378642 0.015071444 1.6145
0.5409109 0.015454597 1.618
0.42851382 0.02528934 1.618
0.43412089 0.025207281 1.6127501
0.44120836 0.02601926 1.6110001
0.51898634 0.020983275 1.6110001
0.52486169 0.024340598 1.6110001
0.53334439 0.025783246 1.6138
0.54511279 0.028214177 1.6156667
0.42851385 0.035124086 1.618
0.43412086 0.035010118 1.6127501
0.44375741 0.035282988 1.6110001
0.52737963 0.032174356 1.6110001
0.53375125 0.035022777 1.6133333
0.54475206 0.034849491 1.6153077
0.55375803 0.036451045 1.6145
0.42851382 0.04074394 1.618
0.43435568 0.044838782 1.613625
0.44456565 0.044484541 1.6110001
0.52737963 0.046163205 1.6110001
0.53375119 0.04482916 1.6133333
0.54423755 0.044887409 1.615375
0.5547604 0.044944141 1.6174167
0.56114233 0.044677835 1.618
0.42851382 0.05479357 1.618
0.43412089 0.054615784 1.6127501
0.44344655 0.054556515 1.6110001
0.51898634 0.051758748 1.6110001
0.52668023 0.053857077 1.6110001
0.53375119 0.054635536 1.6133333
0.54473174 0.054755073 1.6168333
0.55496055 0.054793574 1.618
0.562922 0.05479357 1.618
0.57182008 0.051983643 1.618
0.42584205 0.065930374 1.6155001
0.43476632 0.064046003 1.6115385
0.44158137 0.063416123 1.6110001
0.52668023 0.062949829 1.6110001
0.53428012 0.063842647 1.6124001
0.5444634 0.06423305 1.6152
0.55402398 0.064159997 1.618
0.56058037 0.060413424 1.618
0.40701041 0.078258373 1.6152
0.41534796 0.076228209 1.6138
0.42428172 0.073406056 1.6116364
0.43435383 0.072042584 1.6110001
0.44904211 0.071343139 1.6110001
0.5371719 0.074140906 1.6110001
0.54483062 0.075565629 1.6115834
0.55438155 0.075361215 1.6172223
0.56058037 0.077272989 1.618
0.38917485 0.088512696 1.618
0.39606112 0.087146059 1.615
0.40423757 0.082651056 1.6133333
0.54976183 0.0839331 1.6110001
0.55570209 0.083383068 1.6120001
0.56473929 0.084109373 1.6145
0.57182008 0.082892843 1.618
0.38917485 0.096005827 1.618
0.39387524 0.094407037 1.6131001
0.56654847 0.09559048 1.6110001
0.57182008 0.091322616 1.618
0.38917485 0.10256232 1.618
0.36568472 -0.29226539 1.626
0.37462679 -0.29320666 1.626
0.38488668 -0.29395968 1.626
0.36850852 -0.28944156 1.626
0.37662703 -0.28626478 1.6260002
0.38545144 -0.2847352 1.6260002
0.3947297 -0.28218031 1.6260002
0.40521818 -0.2809701 1.626
0.42780873 -0.2809701 1.626
0.43204448 -0.28238201 1.626
0.39957055 -0.27814627 1.626
0.40578294 -0.27701673 1.626
0.41439557 -0.27532244 1.6260002
0.42498493 -0.2741929 1.626
0.43204448 -0.27532244 1.626
0.41933727 -0.26685098 1.626
0.42498493 -0.26628619 1.6260002
0.42498493 -0.25555572 1.626
0.42667922 -0.24764903 1.626
0.43204448 -0.24567235 1.6260002
0.41933727 -0.21037459 1.626
0.42498493 -0.21178651 1.626
0.43232685 -0.21206889 1.626
0.41863132 -0.20402099 1.626
0.42404366 -0.20566823 1.626
0.43289161 -0.2041622 1.626
0.21602224 -0.19201978 1.626
0.2244937 -0.19060786 1.626
0.23155326 -0.19060786 1.626
0.39957055 -0.19060786 1.626
0.40578294 -0.19286691 1.626
0.41368964 -0.19746569 1.6260002
0.43345639 -0.19484359 1.6260002
0.21743414 -0.18778403 1.626
0.22378774 -0.18637212 1.626
0.23014134 -0.18778403 1.626
0.37641519 -0.18270117 1.626
0.38545144 -0.18496022 1.626
0.39533484 -0.18566619 1.6260002
0.40380627 -0.18637213 1.626
0.43675086 -0.18496023 1.626
0.2386128 -0.17931257 1.626
0.24345362 -0.17447174 1.6260002
0.35438943 -0.17272367 1.626
0.36521408 -0.1769594 1.626
0.37274426 -0.17931257 1.626
0.43853927 -0.17592399 1.626
0.24284852 -0.1680173 1.626
0.34591797 -0.16575822 1.626
0.43839806 -0.16519347 1.626
0.43910402 -0.15531011 1.626
0.43797451 -0.14486197 1.626
0.43533894 -0.13601398 1.6260002
0.43592724 -0.1238951 1.6260002
0.43769214 -0.11436471 1.626
0.42780873 -0.10024561 1.626
0.43251511 -0.10589325 1.626
0.5379377 -0.10871708 1.626
0.42780873 -0.094597973 1.626
0.42458153 -0.086126506 1.6260002
0.42569089 -0.074125275 1.626
0.42498493 -0.064947866 1.626
0.42498493 -0.055064488 1.626
0.42357302 -0.045181118 1.6260002
0.42329064 -0.035297751 1.626
0.41933727 -0.02117865 1.626
0.4221611 -0.025414379 1.626
0.54076153 -0.02400247 1.626
0.41933727 -0.015531011 1.626
0.4221611 -0.012707191 1.626
0.41933727 -0.0084714601 1.626
0.42286706 -0.0035297752 1.626
0.42639685 0.0056476402 1.626
0.42667922 0.016095774 1.626
0.43063256 0.012707191 1.626
0.54217345 0.018354831 1.626
0.42639685 0.025414381 1.6260002
0.544056 0.023061195 1.626
0.42639685 0.035297748 1.626
0.42639685 0.045181125 1.6260002
0.43063256 0.046593029 1.626
0.56787026 0.047157802 1.626
0.57496113 0.046279274 1.6260002
0.58029503 0.04800494 1.626
0.59159029 0.043769211 1.626
0.42579174 0.055467892 1.6260002
0.43063256 0.055064492 1.626
0.56829381 0.055770446 1.626
0.57370609 0.053181946 1.626
0.418396 0.068242319 1.626
0.42442018 0.061841659 1.626
0.56335211 0.065418504 1.6260002
0.39674672 0.077655055 1.626
0.40521821 0.075772502 1.626
0.41368964 0.073889963 1.626
0.56476402 0.07483124 1.626
0.57182354 0.077655055 1.626
0.38827527 0.088950336 1.626
0.39477 0.082737923 1.6260002
0.40239435 0.080478869 1.626
0.57182354 0.080478869 1.626
0.38827527 0.097421795 1.626
0.3910991 0.094597973 1.626
0.5774712 0.091774151 1.626
0.38827527 0.10024561 1.626
0.36393672 -0.29583165 1.6340001
0.3724499 -0.29866934 1.6340001
0.38451016 -0.29086563 1.6340001
0.39383408 -0.2920818 1.6339999
0.40437415 -0.29086563 1.6340001
0.41118464 -0.29313582 1.6340001
0.39586103 -0.28802791 1.6340002
0.40437412 -0.28600097 1.6339999
0.41345486 -0.28490642 1.6340001
0.42565703 -0.28483549 1.6339999
0.41856274 -0.27667707 1.6340001
0.42518401 -0.27809593 1.6339999
0.19722109 -0.24262449 1.6340001
0.19438337 -0.23269249 1.6340001
0.19438337 -0.22559822 1.6340002
0.42802176 -0.20195061 1.6339999
0.4327513 -0.20289651 1.6340001
0.21424736 -0.19154565 1.6340001
0.41572499 -0.19316719 1.6339999
0.42565703 -0.19438337 1.6340002
0.4327513 -0.19296451 1.6340001
0.21424736 -0.18870795 1.6340001
0.22843593 -0.18445137 1.6340001
0.2335438 -0.18416759 1.6340001
0.37883475 -0.1801948 1.6340001
0.38521957 -0.18090422 1.6340001
0.39423946 -0.18141095 1.6339999
0.40380663 -0.18189743 1.6340001
0.41373858 -0.18643777 1.6340001
0.42655993 -0.18587022 1.6340001
0.43396753 -0.18384328 1.6339999
0.23978679 -0.17451937 1.6340002
0.24262449 -0.17451937 1.6340001
0.3575519 -0.17168166 1.6340001
0.36464617 -0.17357348 1.6340002
0.37457818 -0.17664766 1.6340001
0.38451016 -0.17735709 1.6340002
0.39444214 -0.17735709 1.6340001
0.42991358 -0.17168166 1.6340001
0.43558902 -0.17451937 1.6339999
0.23978679 -0.16884395 1.6340001
0.35248455 -0.16519547 1.6339999
0.42991358 -0.16316852 1.6340001
0.43533105 -0.16445839 1.6340001
0.42991361 -0.15465538 1.6340002
0.43558902 -0.1546554 1.6339999
0.42991358 -0.14472339 1.6340001
0.43452492 -0.14578754 1.6339999
0.42991361 -0.13479139 1.6340002
0.4327513 -0.13479139 1.6340002
0.42991358 -0.12485939 1.6340001
0.43331879 -0.12400807 1.6340001
0.42991361 -0.11492739 1.6340002
0.43417016 -0.1149274 1.6339999
0.42601174 -0.10322183 1.6339999
0.43464312 -0.10830606 1.6340002
0.42423815 -0.095063396 1.6339999
0.42234635 -0.084185503 1.6339999
0.42281929 -0.075199403 1.6339999
0.42281932 -0.065267414 1.6339999
0.42281929 -0.055335414 1.6339999
0.41856274 -0.045403413 1.6340001
0.42140043 -0.045403413 1.6340001
0.41856274 -0.035471417 1.6340002
0.42140043 -0.035471417 1.6340002
0.41856274 -0.025539421 1.6340001
0.42140043 -0.026958277 1.6340002
0.41856274 -0.015607424 1.6340002
0.41742763 -0.007661826 1.6340001
0.42140043 -0.0028377133 1.6340001
0.42383274 0.0054727332 1.6339999
0.42494756 0.014897996 1.6340001
0.42281932 0.025539419 1.6339999
0.54909754 0.02128285 1.6340001
0.42281929 0.035471421 1.6339999
0.58598781 0.038309131 1.6340002
0.59308207 0.038309131 1.6340001
0.41856274 0.045403413 1.6340001
0.42281932 0.045403417 1.6339999
0.58598781 0.043984562 1.6339999
0.59414625 0.044339277 1.6339999
0.60254115 0.043984562 1.6339999
0.61294615 0.048241131 1.6340001
0.41856274 0.055335414 1.6340002
0.42253551 0.054767866 1.6340001
0.58693367 0.054389507 1.6340002
0.61471975 0.05533541 1.6339999
0.62004036 0.055335414 1.6340002
0.41537029 0.066686265 1.6339999
0.42140043 0.062429696 1.6340001
0.56896156 0.069523975 1.6340001
0.61294615 0.061010838 1.6340001
0.39586103 0.076618262 1.6340001
0.40366471 0.075199403 1.6340001
0.41288731 0.072361693 1.6340002
0.56896156 0.072361693 1.6340001
0.57179928 0.075199403 1.6340001
0.38545609 0.087496161 1.6339999
0.39018559 0.083712548 1.6340002
0.38486487 0.094708681 1.6339999
0.39018559 0.093644544 1.6340001
0.58315009 0.092225686 1.6340001
0.40724644 -0.29553151 1.641
0.41750598 -0.29211169 1.641
0.42178077 -0.29211169 1.641
0.42178077 -0.28783688 1.641
0.1961678 -0.2505793 1.649
0.20189533 -0.25344306 1.649
0.19453061 -0.24434069 1.6455715
0.18757649 -0.23339672 1.649
0.1922159 -0.2363421 1.6467143
0.18854643 -0.22711346 1.645
0.19172424 -0.22455102 1.6436667
0.19373049 -0.21534157 1.6472222
0.1961678 -0.20762284 1.649
0.20475909 -0.20332721 1.649
0.21167946 -0.19371438 1.6455715
0.2158622 -0.18584128 1.6463333
0.22458453 -0.18453352 1.6474001
0.23425202 -0.18140787 1.645
0.40895635 -0.18096675 1.641
0.41536856 -0.18167922 1.641
0.42401996 -0.18218814 1.6409999
0.23619199 -0.17551845 1.6463333
0.36763322 -0.17241713 1.641
0.3754532 -0.17224462 1.6454444
0.3844381 -0.17295012 1.6434
0.39454028 -0.17253508 1.6446363
0.4047063 -0.17594019 1.6440001
0.41545627 -0.17518842 1.647
0.42461711 -0.17495681 1.6422309
0.4317553 -0.17669195 1.641
0.23796415 -0.16956727 1.641
0.35853049 -0.1656919 1.645
0.36371046 -0.167878 1.6444286
0.38803995 -0.16753016 1.649
0.41954133 -0.16180263 1.649
0.42546305 -0.1652205 1.6431334
0.4317553 -0.16671741 1.641
0.41954133 -0.15750699 1.649
0.4252511 -0.1548783 1.6450002
0.42577165 -0.14498426 1.6438572
0.41715482 -0.133165 1.649
0.42480144 -0.13542499 1.6416668
0.41686165 -0.12538937 1.6472223
0.42463064 -0.12539428 1.6410003
0.41858673 -0.1178916 1.649
0.42531139 -0.11519451 1.6440771
0.41818443 -0.10419393 1.6436666
0.42391816 -0.10615766 1.6409999
0.4317553 -0.10972 1.641
0.41608104 -0.095470645 1.6409999
0.42035583 -0.095470645 1.6410002
0.41633373 -0.085545592 1.6419998
0.42035583 -0.085496105 1.641
0.41663024 -0.074677758 1.646
0.42035583 -0.075521559 1.6410002
0.41715094 -0.065070301 1.6444285
0.42035583 -0.065547012 1.641
0.4155499 -0.054739829 1.6445556
0.42035583 -0.055572465 1.6410002
0.4080863 -0.042956449 1.649
0.41420889 -0.045048766 1.6432858
0.4080863 -0.034365162 1.649
0.41368049 -0.034878589 1.6444288
0.4080863 -0.025773872 1.649
0.41449574 -0.025088755 1.6444288
0.40522254 -0.010023172 1.649
0.41517416 -0.015132098 1.6442001
0.40617713 -0.0052502328 1.649
0.41491508 -0.0049173716 1.6445556
0.42035583 -0.0014249351 1.641
0.417431 0.0042910143 1.6463333
0.42130578 0.0066496967 1.6409999
0.41717985 0.014144282 1.6472223
0.42178079 0.015674286 1.6409999
0.41640934 0.025241002 1.6454445
0.42035583 0.02564883 1.641
0.41606694 0.034599435 1.6466001
0.42035583 0.035623375 1.6410002
0.4154627 0.045268033 1.6431819
0.42035583 0.045597922 1.641
0.59533787 0.048732776 1.641
0.60607237 0.047022853 1.6409999
0.61200958 0.047735326 1.641
0.4080863 0.057275269 1.649
0.41389051 0.055235025 1.6440771
0.59623349 0.053943969 1.6409999
0.60531986 0.055885933 1.6417999
0.61200958 0.055572465 1.641
0.37944865 0.067298442 1.649
0.40620601 0.06643559 1.6440772
0.41424897 0.063307829 1.6409999
0.60465986 0.062271949 1.6423331
0.61129713 0.061272208 1.641
0.37873271 0.073741913 1.649
0.38545451 0.077417009 1.6467143
0.39423862 0.073702395 1.6450001
0.40325662 0.072671689 1.6410002
0.37719858 0.085447252 1.6470001
0.38349301 0.084110759 1.6417999
0.37709635 0.09141466 1.645
0.38117015 0.096183114 1.641
0.19903792 -0.26138714 1.6570001
0.20287479 -0.26186675 1.6570001
0.18848652 -0.25467262 1.6570001
0.19604038 -0.25503233 1.6569998
0.20287479 -0.25755027 1.6570001
0.18618441 -0.2440253 1.6569998
0.19232339 -0.24795811 1.6570001
0.18417005 -0.23452902 1.6569999
0.18560886 -0.22445723 1.6569998
0.1877671 -0.21510485 1.6570001
0.19424182 -0.21294661 1.6570001
0.20431364 -0.21150777 1.6570001
0.18848652 -0.20863011 1.6570001
0.19539289 -0.20517692 1.6569998
0.20359421 -0.20647186 1.6570001
0.21150777 -0.20287479 1.6570001
0.1974792 -0.1974792 1.6569998
0.20575248 -0.19568068 1.6569997
0.21150777 -0.19999714 1.6570001
0.20647186 -0.1877671 1.6570001
0.21323438 -0.18445781 1.6569999
0.22301841 -0.1827312 1.6570001
0.21438543 -0.17985354 1.6570001
0.22618385 -0.17524929 1.6569998
0.23280244 -0.17524929 1.6569999
0.40574959 -0.17122057 1.6570001
0.41351929 -0.17179611 1.6569999
0.22877371 -0.16834292 1.6570001
0.36642161 -0.16354682 1.6569999
0.37517449 -0.16582498 1.6569998
0.38488659 -0.16618469 1.6569998
0.3956778 -0.1683429 1.6570001
0.40143311 -0.16834292 1.6570001
0.41869906 -0.16546527 1.6570001
0.42157671 -0.16690409 1.6570001
0.38416716 -0.15683229 1.6570001
0.41869906 -0.15539345 1.6570001
0.42157671 -0.1525158 1.6570001
0.41869906 -0.14532167 1.6570001
0.42157671 -0.14532167 1.6570001
0.41678062 -0.13668869 1.6570001
0.42157671 -0.13956635 1.6570001
0.4158214 -0.12230041 1.6570001
0.41726023 -0.1165451 1.6570001
0.42253593 -0.111749 1.6570001
0.4158214 -0.070502594 1.6570001
0.41510201 -0.064027861 1.6570001
0.41222435 -0.054675475 1.6569998
0.4100661 -0.047481336 1.6570001
0.40718842 -0.021582427 1.6570001
0.4100661 -0.021582427 1.6570001
0.40603733 -0.01582711 1.6569999
0.41150495 -0.014388284 1.6569998
0.40718842 -0.0014388284 1.6570001
0.41294375 -0.004316485 1.6570001
0.40718842 0.004316485 1.6570001
0.41294372 0.004316485 1.6569998
0.414177 0.014593831 1.6569998
0.41366318 0.023740668 1.6570001
0.41351929 0.034819648 1.6569999
0.41150495 0.044603676 1.6569999
0.40718842 0.057553135 1.6570001
0.41102532 0.051318213 1.6570001
0.39855546 0.067624934 1.6570001
0.40431076 0.064027861 1.6570001
0.37635639 0.076257899 1.6569998
0.38560602 0.072421022 1.6569999
0.39423898 0.070502594 1.6570001
0.37457499 0.083931655 1.6570001
0.18939653 -0.27035993 1.6650001
0.19517963 -0.27132377 1.6650001
0.18691804 -0.26457685 1.6650001
0.19481817 -0.26493829 1.6650001
0.1850592 -0.2544564 1.6650001
0.19228809 -0.25734794 1.6650001
0.18144476 -0.24505888 1.6650001
0.17783032 -0.23566133 1.6650001
0.18072188 -0.23566133 1.6650001
0.17783032 -0.22554091 1.6650001
0.18168573 -0.22457705 1.6650001
0.18361342 -0.21542048 1.6650001
0.18650497 -0.20530006 1.6650002
0.19228809 -0.20096274 1.6650001
0.18843269 -0.19710733 1.6650001
0.19460133 -0.19460133 1.6650002
0.20096274 -0.19228809 1.6650001
0.19807118 -0.18939653 1.6650001
0.20530006 -0.1850592 1.6650001
0.21542048 -0.18072188 1.6650001
0.22120358 -0.18072188 1.6650001
0.20963739 -0.17638455 1.6650001
0.21542048 -0.17493878 1.6650001
0.22293851 -0.1760954 1.6650002
0.21542048 -0.16915567 1.6650001
0.22409515 -0.16915567 1.6650001
0.36867264 -0.16048104 1.6650001
0.37445578 -0.16048104 1.6650001
0.38436958 -0.16172028 1.6650001
0.39469656 -0.16337259 1.6650001
0.40626281 -0.16667721 1.6650001
0.41520032 -0.16521268 1.6650002
0.37503403 -0.15643285 1.6650002
0.3831304 -0.1568666 1.6650001
0.39325082 -0.15758948 1.6650001
0.41710609 -0.15542081 1.6650001
0.41667238 -0.14371005 1.6650002
0.41493744 -0.13734862 1.6650001
0.41782898 -0.11277045 1.6650001
0.42072055 -0.11132468 1.6650001
0.42072055 -0.10843313 1.6650001
0.41349167 -0.0636141 1.6650001
0.4120459 -0.059276778 1.6650001
0.40626279 -0.015903525 1.6650001
0.4120459 -0.001445775 1.6650001
0.40915433 0.01445775 1.6650001
0.4120459 0.014457749 1.6650001
0.4079977 0.024578175 1.6650002
0.41204587 0.024578176 1.6650001
0.40770859 0.034698606 1.6650001
0.4120459 0.034698606 1.6650001
0.40843144 0.044096135 1.6650001
0.39180502 0.059276778 1.6650001
0.40674472 0.055421378 1.6650001
0.38746771 0.067951426 1.6650001
0.39397368 0.067228541 1.6650001
0.40240738 0.064096026 1.6650001
0.37445575 0.079517625 1.6650001
0.39180502 0.070842974 1.6650001
0.37300998 0.082409181 1.6650001
0.17868477 -0.26584807 1.6730001
0.18333349 -0.26236156 1.6730001
0.18159021 -0.25422633 1.673
0.17868477 -0.24550997 1.673
0.17577933 -0.23534092 1.6730001
0.17577933 -0.22517186 1.673
0.17810369 -0.21587446 1.6730001
0.18159021 -0.21209738 1.6730001
0.17868477 -0.20483376 1.673
0.18231657 -0.20410739 1.6730001
0.18594839 -0.19611742 1.6730001
0.19321199 -0.19175926 1.6730001
0.19757015 -0.1874011 1.6730001
0.20483376 -0.1825587 1.673
0.20677073 -0.1777163 1.673
0.21064465 -0.17287388 1.6730001
0.21064465 -0.16996844 1.6730001
0.39949846 -0.16125211 1.6730001
0.40530935 -0.16270484 1.6730002
0.41257298 -0.16125211 1.6730001
0.39853001 -0.1564097 1.673
0.40603572 -0.15762031 1.6730001
0.41366252 -0.15507804 1.6730002
0.41467133 -0.14575642 1.6730002
0.40821481 0.018885382 1.6730001
0.40821481 0.024696268 1.6730001
0.40530935 0.037770763 1.6730001
0.40579364 0.046002854 1.6730002
0.39804575 0.059561592 1.6730001
0.40482512 0.054719184 1.6730002
0.38787669 0.065372474 1.6730001
0.39534783 0.063712224 1.6730002
0.40240392 0.062467035 1.6730001
0.1795392 -0.26274031 1.6810001
0.1795392 -0.25544193 1.6810001
0.17589004 -0.2452243 1.6810001
0.17370053 -0.23500662 1.6810001
0.17311668 -0.22566471 1.6810001
0.17661987 -0.21457124 1.6810001
0.17661987 -0.20581324 1.6810001
0.1795392 -0.19705522 1.6810001
0.18440478 -0.19462246 1.6810001
0.19121656 -0.19121656 1.6810001
0.18829723 -0.18829723 1.6810001
0.19647136 -0.18596175 1.6810001
0.2028939 -0.18245855 1.6810001
0.20678635 -0.17467363 1.6810001
0.40627441 -0.1552114 1.6810001
0.41113994 -0.15131897 1.6810001
0.39848948 0.056927066 1.6810001
0.40335503 0.054007728 1.6810001
0.17561564 -0.26434761 1.6960001
0.16955945 -0.25212753 1.6980001
0.17508514 -0.25552213 1.6944444
0.16795188 -0.24456435 1.6966667
0.17303209 -0.24589153 1.6916001
0.16658592 -0.23457956 1.6948
0.17169555 -0.23626482 1.6900001
0.16474019 -0.22505635 1.6940001
0.17169555 -0.22452496 1.6900001
0.15776402 -0.21821564 1.6980001
0.16468148 -0.21535747 1.6964
0.17316304 -0.21572006 1.6900002
0.16714808 -0.2061736 1.6960001
0.17374252 -0.20506424 1.6908891
0.16955945 -0.19904806 1.6980001
0.17533457 -0.19504607 1.6940002
0.18196794 -0.19224033 1.6900001
0.18504497 -0.18651244 1.694
0.19407043 -0.1831916 1.6932001
0.20251271 -0.18050046 1.6900001
0.19757363 -0.1769316 1.6980001
0.20511077 -0.17518163 1.6953335
0.40355793 0.054296885 1.6900001
0.17332107 -0.27109194 1.706
0.17109901 -0.26590711 1.7060001
0.16640797 -0.25134024 1.706
0.17035832 -0.25775954 1.7060001
0.16443281 -0.24442716 1.706
0.1585073 -0.23257615 1.7060001
0.16147006 -0.2355389 1.706
0.15702593 -0.22516926 1.7060002
0.15751971 -0.21479963 1.706
0.1585073 -0.20887412 1.7060001
0.16369212 -0.20517069 1.7060001
0.16591418 -0.19998586 1.7060001
0.17258038 -0.19331966 1.7060001
0.178259 -0.18714726 1.706
0.18369073 -0.18369073 1.7060001
0.1860186 -0.17670706 1.7060002
0.19406036 -0.17554313 1.7060002
0.20442998 -0.17332107 1.7060001
0.16827865 -0.26358694 1.715
0.15934351 -0.25465178 1.715
0.16470461 -0.25524744 1.7149999
0.15934351 -0.24422744 1.715
0.1623219 -0.24571663 1.715
0.15735793 -0.23628509 1.715
0.15338674 -0.22486794 1.715
0.15537234 -0.2159328 1.715
0.15785432 -0.20848684 1.715
0.1623219 -0.20253007 1.715
0.16708732 -0.19567978 1.7149999
0.17125705 -0.19210573 1.715
0.17602246 -0.18495762 1.7149999
0.18118501 -0.18217778 1.715
0.17721382 -0.17721382 1.715
0.18267418 -0.17423542 1.715
0.20401926 -0.17125705 1.715
0.15709452 -0.27080104 1.723
0.16557264 -0.27179846 1.7229999
0.1560971 -0.26282164 1.723
0.16307908 -0.26481649 1.7229998
0.15589762 -0.25524122 1.7229999
0.16307908 -0.25883195 1.723
0.15485032 -0.24536672 1.7229998
0.16008681 -0.24985512 1.723
0.15260611 -0.23489372 1.7229999
0.14811771 -0.22292462 1.723
0.15110998 -0.22591691 1.723
0.15239239 -0.21480273 1.7229998
0.15559839 -0.20497096 1.7229999
0.16008681 -0.20347482 1.723
0.15709452 -0.19898641 1.723
0.16337831 -0.19389954 1.7229998
0.17205591 -0.19000958 1.723
0.16786672 -0.18462348 1.7229999
0.17325282 -0.18342657 1.7229999
0.16906364 -0.17804046 1.723
0.1755469 -0.17504819 1.7229999
0.1549072 -0.26018393 1.7320001
0.14889139 -0.25266415 1.7320001
0.15189929 -0.25416812 1.732
0.14813942 -0.24439242 1.7320001
0.15189929 -0.24664834 1.7320001
0.14688613 -0.23411542 1.7320002
0.14550748 -0.22408904 1.7320002
0.14588347 -0.21506535 1.7320002
0.14648505 -0.2051392 1.7320001
0.15250088 -0.20363529 1.7320001
0.14889139 -0.19551393 1.7320001
0.15528318 -0.19438599 1.7320002
0.160923 -0.19100209 1.7320001
0.1579151 -0.18799417 1.7320001
0.1634296 -0.18498628 1.7320002
0.16693881 -0.17596255 1.7320002
0.17295463 -0.17445859 1.7320001
0.14815332 -0.26455948 1.7410001
0.15268861 -0.2630477 1.7410001
0.14815331 -0.25548884 1.7410001
0.14512977 -0.24490649 1.7410001
0.14261015 -0.2343241 1.7410001
0.13757092 -0.22222996 1.7410001
0.14059445 -0.22525351 1.7410001
0.13757092 -0.21920641 1.7410001
0.14059445 -0.21467111 1.7410001
0.14210624 -0.20408873 1.7410001
0.14764939 -0.19501813 1.7410001
0.15268861 -0.19199458 1.7410001
0.15722391 -0.18594751 1.7410001
0.16175921 -0.18292397 1.7410001
0.15873568 -0.17990044 1.7410001
0.16276705 -0.1768769 1.7410001
0.14510284 -0.26271251 1.7590001
0.13899325 -0.25354815 1.7590001
0.14434588 -0.25556463 1.7545
0.13822955 -0.24514744 1.7590001
0.14226274 -0.24573117 1.7522501
0.13579622 -0.23497865 1.7572
0.14132126 -0.237055 1.7500001
0.13511799 -0.22494924 1.7533751
0.13546956 -0.21462856 1.753
0.13672142 -0.20482537 1.756
0.14132126 -0.20210458 1.7500001
0.13899325 -0.19703439 1.7590001
0.14443345 -0.19488746 1.755
0.14815764 -0.18787 1.7590001
0.15348758 -0.1856406 1.7540001
0.15843914 -0.17824844 1.7545002
0.16148612 -0.17520145 1.7545002
0.13970442 -0.26405668 1.7680001
0.14277485 -0.26559189 1.7680001
0.1353181 -0.2533102 1.7679999
0.13305183 -0.24409895 1.768
0.13049313 -0.23488764 1.7680001
0.12742271 -0.22260594 1.7680001
0.13049313 -0.22567637 1.7680001
0.12742271 -0.21492988 1.7680001
0.13049313 -0.21492988 1.7680001
0.12742271 -0.20571859 1.7680001
0.13202834 -0.20418338 1.768
0.13612224 -0.19599557 1.768
0.14277485 -0.19190167 1.7680001
0.14645937 -0.1863749 1.768
0.15198612 -0.1826904 1.7680001
0.14891569 -0.17961997 1.7680001
0.15556829 -0.17654954 1.768
0.16119741 -0.17347911 1.7680001
0.13468434 -0.26297611 1.7770002
0.1321861 -0.25665709 1.7770001
0.12807135 -0.24379848 1.7770001
0.13115741 -0.24842757 1.7770001
0.12807135 -0.23608334 1.7770001
0.12807135 -0.22836819 1.7770001
0.1249853 -0.21139489 1.7770001
