# .PCD v0.7 - Point Cloud Data file format
VERSION 0.7
FIELDS x y z
SIZE 4 4 4
TYPE F F F
COUNT 1 1 1
WIDTH 1477
HEIGHT 1
VIEWPOINT 0 0 0 1 0 0 0
POINTS 1477
DATA ascii
-0.046647262 -0.18685704 1.0648183
-0.27543187 -0.17898434 1.0680001
-0.26677632 -0.17898434 1.0680001
-0.25535312 -0.17640221 1.0654999
-0.24737613 -0.17473285 1.0647143
-0.03089009 -0.28362721 1.0780001
-0.025213504 -0.28230384 1.0753332
-0.0035521784 -0.28224969 1.0755999
0.0046712859 -0.28112778 1.0755999
0.012141037 -0.28105807 1.0753332
0.021449571 -0.28257477 1.074
-0.030689506 -0.2799255 1.0710001
-0.022319641 -0.2799255 1.0710001
-0.010229835 -0.27434558 1.0710001
-0.004504913 -0.27484897 1.0732498
0.0046635754 -0.27503324 1.0736799
0.014747507 -0.27528816 1.0769229
0.024313828 -0.2739743 1.0768572
0.031514134 -0.27114633 1.0780001
-0.00092998502 -0.26783568 1.0710001
0.0048824213 -0.26806819 1.0710001
0.015430574 -0.26580346 1.073222
0.025251668 -0.26521429 1.0739999
0.034069452 -0.26420447 1.0761818
0.042122852 -0.26116168 1.0780001
0.018098939 -0.25588894 1.0710001
0.024950227 -0.25486401 1.072607
0.034624897 -0.25546834 1.0776798
0.041782461 -0.25588566 1.0780001
-0.27145839 -0.24150434 1.0780001
-0.26513755 -0.24277103 1.0732501
0.025450621 -0.24481587 1.0716521
0.034746431 -0.24572352 1.0769229
0.04249727 -0.24487421 1.0779998
-0.27425614 -0.2347189 1.0755001
-0.26765117 -0.23787774 1.0715001
0.025627788 -0.23457685 1.0716921
0.034409117 -0.23504485 1.0748963
0.041561209 -0.23607516 1.0780001
-0.27765986 -0.22526416 1.074
0.016657153 -0.22378543 1.0716
0.02491178 -0.22546031 1.0746536
0.033608109 -0.22733246 1.0773847
-0.28175506 -0.21435851 1.0780001
-0.27752495 -0.21512742 1.0725
-0.00092998502 -0.2111066 1.0710001
0.0052044834 -0.21382794 1.0725883
0.014990906 -0.21541336 1.076645
0.021997489 -0.21857078 1.0780001
-0.28175506 -0.20499787 1.0780001
-0.27736998 -0.20503825 1.0725001
-0.011175451 -0.20115681 1.0725
-0.0038651167 -0.20458013 1.0744283
0.004153721 -0.20775396 1.0766667
0.012902391 -0.20843092 1.0764
-0.28279069 -0.19506264 1.0748183
-0.27722523 -0.19571851 1.0718572
-0.03451778 -0.19268137 1.0743848
-0.025066612 -0.19516268 1.0741252
-0.015479172 -0.19699679 1.0741999
-0.0084245699 -0.1993815 1.0780001
-0.28343296 -0.18566488 1.0723002
-0.27806553 -0.18785697 1.0710001
-0.041886669 -0.18896322 1.072
-0.035570405 -0.18814874 1.0780001
-0.28312349 -0.17690909 1.0760833
-0.27475265 -0.17534772 1.0729129
-0.26508293 -0.17456543 1.0730356
-0.25558743 -0.17256388 1.0734668
-0.24454506 -0.17303422 1.0755001
-0.2345888 -0.17168134 1.0740001
-0.26396987 -0.16942747 1.0780001
-0.25741741 -0.16942747 1.0780001
-0.23588797 -0.16942747 1.0780001
-0.03379206 -0.28441653 1.0810001
-0.027221382 -0.28441653 1.0810001
0.015957363 -0.28191343 1.0810002
0.02509987 -0.28324947 1.0866001
0.031176642 -0.28058976 1.0880001
0.027012765 -0.27786908 1.0820001
0.034969956 -0.27425632 1.0835001
0.043022353 -0.27227905 1.0865
0.038485404 -0.26752052 1.0810001
0.045277089 -0.26479325 1.0829999
0.051331237 -0.26358432 1.0880001
-0.27539366 -0.25083023 1.0880001
0.046913076 -0.25472575 1.0816317
0.052978668 -0.2554478 1.0877274
-0.28153449 -0.24374464 1.0880001
-0.27619776 -0.24459933 1.0840001
0.048300676 -0.24511947 1.0815717
0.052543145 -0.2453008 1.0870001
-0.28376386 -0.23470823 1.0864002
-0.27850261 -0.23777603 1.0823334
0.046688996 -0.23468268 1.0825239
0.051331237 -0.23587175 1.0880001
-0.2844663 -0.22570543 1.0850911
0.027221382 -0.2210564 1.0810001
0.035527654 -0.22327103 1.081706
0.043557636 -0.22595575 1.0849614
0.050071575 -0.22957344 1.0880001
-0.28455612 -0.21474499 1.0831113
0.017834701 -0.21182616 1.0810001
0.025840834 -0.21454316 1.084222
0.034029923 -0.21757606 1.0866001
-0.28597951 -0.20524275 1.0842501
-0.00093866838 -0.2018137 1.0810001
0.0055830362 -0.20302223 1.0834669
0.014649072 -0.20612419 1.0834762
0.023551228 -0.2081482 1.0846667
-0.29145437 -0.19509019 1.0880001
-0.28800899 -0.19444953 1.0818001
-0.033251785 -0.19106616 1.0818001
-0.025427062 -0.19212569 1.0846001
-0.014853058 -0.19383189 1.0862501
-0.0055107637 -0.1971343 1.0857369
0.00094474672 -0.19934155 1.0880001
-0.29112178 -0.18937048 1.085
-0.28843775 -0.18414833 1.082
-0.03244137 -0.188081 1.0830001
-0.024935931 -0.1877813 1.0867144
-0.017403262 -0.18900952 1.0875715
-0.29192674 -0.17729747 1.0880001
-0.28587097 -0.17371921 1.0853335
-0.27601239 -0.17108262 1.0832223
-0.25108814 -0.17115198 1.0830001
-0.24920733 -0.17115198 1.0830001
-0.23270901 -0.17052765 1.085
-0.28058976 -0.16910966 1.0880001
-0.27389789 -0.16843733 1.0871429
-0.26489091 -0.16546312 1.0852915
-0.25477093 -0.16621029 1.0858799
-0.24493992 -0.16719364 1.0855237
-0.23727971 -0.16804866 1.083889
-0.2531921 -0.01133696 1.0880002
-0.24705127 -0.010864586 1.0880001
-0.25424874 -0.0047160489 1.0860499
-0.24732159 -0.0053026401 1.0855626
-0.252047 0.0042165685 1.0866001
-0.24661748 0.0044530621 1.0875716
-0.25035787 0.01133696 1.0880001
-0.24783856 0.011651876 1.0880001
0.029475575 -0.29000163 1.095
0.035180528 -0.29000163 1.095
0.042867016 -0.29053131 1.097
0.028207809 -0.28683224 1.0950001
0.035355836 -0.28517899 1.0941579
0.043724231 -0.28321302 1.0962001
0.053528287 -0.28180671 1.098
0.061019525 -0.28126186 1.098
0.036567774 -0.27908981 1.0910001
0.045920592 -0.27646464 1.0926001
0.05539272 -0.27491716 1.0944283
0.065126315 -0.27440551 1.0964999
0.071507253 -0.272681 1.098
0.055886585 -0.2656619 1.0923332
0.065597899 -0.26524198 1.0948398
0.073322229 -0.26503322 1.0966001
-0.28431287 -0.2518962 1.098
0.057920542 -0.25453943 1.0912499
0.065576829 -0.25469646 1.0944666
0.074489765 -0.25455669 1.0962498
-0.29188865 -0.24447241 1.097625
-0.28638062 -0.24564941 1.0950835
0.057463508 -0.24481232 1.0927777
0.065606929 -0.244362 1.0949998
0.074222893 -0.24521428 1.096579
-0.29270303 -0.23168349 1.098
-0.28704756 -0.23589057 1.0910001
0.055604111 -0.23507388 1.0933477
0.065111689 -0.23672907 1.0973331
0.073414117 -0.23931094 1.098
-0.29168999 -0.22573139 1.0968751
-0.28894228 -0.22452235 1.0910001
0.046717964 -0.22172013 1.092375
0.05325333 -0.22617215 1.0961051
-0.29190329 -0.21488644 1.0950001
-0.28894228 -0.21599618 1.0910001
0.036158457 -0.21313953 1.0925555
0.043650169 -0.21555589 1.0949091
0.05053179 -0.21833548 1.098
-0.29302266 -0.20454492 1.095625
-0.28894228 -0.20652267 1.0910001
0.016149033 -0.20269381 1.0938668
0.02552272 -0.20645656 1.0949231
0.034590926 -0.20694326 1.095125
0.042371631 -0.20804051 1.0965
-0.29462421 -0.19767825 1.0945001
-0.011368221 -0.19136505 1.0910001
-0.0036315152 -0.1938913 1.091
0.010420869 -0.19989121 1.0910001
-0.30223733 -0.18162842 1.098
-0.29522526 -0.18334454 1.0940001
-0.01475807 -0.18753804 1.0915715
-0.008526165 -0.18852299 1.0910001
-0.30223733 -0.17638454 1.098
-0.29557568 -0.17482482 1.0945237
-0.28852111 -0.17083417 1.0930001
-0.23485379 -0.17019768 1.095
-0.29079616 -0.16875711 1.098
-0.28426862 -0.16545065 1.096227
-0.27595133 -0.16414447 1.0940526
-0.2655814 -0.16086446 1.0918889
-0.25493035 -0.16110851 1.0914001
-0.24485701 -0.16195177 1.0932668
-0.23655947 -0.16451357 1.0965554
-0.28316876 -0.1554091 1.0979998
-0.27573046 -0.15501574 1.095857
-0.26562938 -0.15479098 1.0940998
-0.25531322 -0.1555282 1.0963701
-0.24464118 -0.15561998 1.097739
-0.23859587 -0.15612417 1.098
-0.28316876 -0.14492136 1.0979998
-0.27565947 -0.14465187 1.0967774
-0.26515922 -0.14498869 1.0969999
-0.25607118 -0.1452726 1.0979998
-0.24503152 -0.14968851 1.098
-0.28412217 -0.13443366 1.0979998
-0.27536607 -0.13463897 1.0978844
-0.26505354 -0.13443364 1.0979997
-0.25577927 -0.13374023 1.0979999
-0.28459889 -0.12648837 1.0979999
-0.27649471 -0.12489933 1.0979998
-0.26493913 -0.12550955 1.0979997
-0.25504255 -0.12656784 1.098
-0.27348775 -0.11565839 1.0979998
-0.26667997 -0.1154772 1.0979998
-0.27299881 -0.10837322 1.098
-0.26762044 -0.10700417 1.0979998
-0.27172756 -0.061019525 1.098
-0.26583362 -0.061106205 1.0979999
-0.25583705 -0.060701713 1.098
-0.27227238 -0.053528283 1.098
-0.26520735 -0.054482888 1.0964441
-0.2549772 -0.054100089 1.0971426
-0.24884523 -0.054345511 1.098
-0.27323309 -0.044495076 1.0969286
-0.26477149 -0.04450158 1.0954283
-0.25629741 -0.045600388 1.097684
-0.27364042 -0.035245493 1.0970623
-0.26483515 -0.035245564 1.0970998
-0.25837955 -0.036230341 1.098
-0.27336201 -0.02819429 1.098
-0.26600695 -0.02764947 1.0979998
-0.2623969 -0.014014652 1.0965714
-0.25522241 -0.015213037 1.0946875
-0.24681821 -0.013852002 1.0924001
-0.24441674 0.008526165 1.0910001
-0.2451196 0.014158907 1.0943683
-0.245279 0.022107074 1.0974
0.048208419 -0.29148069 1.103
0.054871548 -0.29264122 1.1086001
0.060667846 -0.29178345 1.1090001
0.046265092 -0.28811502 1.1023334
0.05510978 -0.28705069 1.1044616
0.064832047 -0.2857621 1.105684
0.074140422 -0.28383934 1.1072221
0.084635392 -0.28129762 1.1090001
0.091483258 -0.28022766 1.1090001
0.068897039 -0.27845886 1.102
0.076383017 -0.27562293 1.1041427
0.085567661 -0.27496871 1.1071999
0.094524257 -0.2736389 1.109
0.10111308 -0.27059785 1.1090001
0.078487694 -0.26513544 1.1023
0.085396253 -0.26482433 1.1049997
0.095186383 -0.26440001 1.1072398
0.10251377 -0.26411963 1.1090001
0.079422981 -0.25613114 1.102
0.085519262 -0.25431415 1.1044998
0.095308244 -0.25511709 1.1086798
0.10239705 -0.25647411 1.1090001
-0.29185551 -0.24975178 1.102
0.078195155 -0.24309301 1.1026666
0.08537437 -0.24524304 1.1065767
0.094088972 -0.2463534 1.1090001
-0.29704511 -0.23188582 1.1035
0.065030299 -0.23248397 1.1024001
0.075641468 -0.234456 1.105517
0.08436282 -0.23683941 1.1087501
-0.30237624 -0.22437474 1.1090001
-0.29704511 -0.22517839 1.1035001
0.056565914 -0.22321761 1.1040834
0.064175829 -0.22518976 1.106607
0.071955703 -0.22687615 1.1075456
-0.30244124 -0.21425392 1.1082728
-0.29704511 -0.21559632 1.1034999
0.047348656 -0.21412078 1.1038001
0.053131443 -0.2186103 1.1058334
-0.3022427 -0.20566145 1.1078001
-0.29727796 -0.20637216 1.1020001
0.025645012 -0.2040118 1.1020001
0.031577811 -0.20382042 1.102
-0.30141327 -0.19837424 1.1090001
-0.29721418 -0.19425139 1.102
-0.30169258 -0.18716462 1.1053333
-0.29895893 -0.18685275 1.1035
-0.30457559 -0.1744978 1.1041667
-0.29759693 -0.1712857 1.102
-0.30196553 -0.16608767 1.1082002
-0.29558405 -0.16511115 1.1039999
-0.28946328 -0.16315201 1.102
-0.23188914 -0.16523822 1.1022729
-0.22867808 -0.16485189 1.1053751
-0.29531568 -0.15508048 1.1053808
-0.28898486 -0.15501834 1.1020001
-0.25166559 -0.15214764 1.102
-0.24619758 -0.15105404 1.1020001
-0.2344289 -0.15497132 1.1039627
-0.29522964 -0.14464615 1.1057647
-0.28898486 -0.14449242 1.1020001
-0.25300524 -0.14430103 1.1020001
-0.24496724 -0.1444924 1.1019998
-0.23545538 -0.14494066 1.1060416
-0.29514652 -0.13532248 1.10625
-0.28994173 -0.13492337 1.102
-0.2545363 -0.13547018 1.1020001
-0.2454491 -0.13505584 1.1046127
-0.23727949 -0.13718444 1.1083848
-0.29466549 -0.12516846 1.1048667
-0.28611407 -0.12412404 1.1020001
-0.27348298 -0.12458882 1.1020001
-0.26378635 -0.12216467 1.102
-0.25526804 -0.12456629 1.1020001
-0.24595518 -0.12498032 1.1051377
-0.29328769 -0.11448213 1.1054667
-0.28472224 -0.11508939 1.1019999
-0.27774119 -0.11458918 1.1020001
-0.26365876 -0.11489219 1.1020001
-0.25519824 -0.11461745 1.1022811
-0.24608503 -0.11514866 1.1071934
-0.23978244 -0.11395284 1.1090001
-0.29393065 -0.10434809 1.1069999
-0.28448135 -0.10440426 1.1030798
-0.27543709 -0.10349665 1.102
-0.26415569 -0.10369809 1.102
-0.25498584 -0.1044877 1.1039664
-0.24599804 -0.10514009 1.1089998
-0.29455787 -0.095650569 1.1081998
-0.28499898 -0.094995864 1.1050798
-0.27466163 -0.094743326 1.1021198
-0.26511997 -0.094753243 1.1022398
-0.255025 -0.094916359 1.1041331
-0.24763447 -0.095927797 1.1090001
-0.29362735 -0.085773326 1.1082001
-0.28492516 -0.085383214 1.1047997
-0.27505243 -0.085292779 1.1036798
-0.26458609 -0.085320011 1.1039999
-0.25582379 -0.086084113 1.1073682
-0.24941225 -0.089557298 1.1090001
-0.29347554 -0.077938996 1.1081113
-0.28437006 -0.07549388 1.1050397
-0.27547899 -0.075154923 1.1045711
-0.26455134 -0.074762419 1.103861
-0.25682813 -0.074513637 1.1072501
-0.28176841 -0.065290168 1.1090001
-0.27502888 -0.065618478 1.1032
-0.26511884 -0.065619543 1.102706
-0.25468472 -0.065329097 1.1034089
-0.24633482 -0.062840804 1.1057776
-0.23914045 -0.061309833 1.1090001
-0.28022766 -0.053926975 1.1090001
-0.27682024 -0.055293895 1.1030909
-0.24520327 -0.054634187 1.1038274
-0.23881945 -0.054889958 1.1090001
-0.28189921 -0.04425982 1.1080002
-0.27839258 -0.045655813 1.103
-0.25237906 -0.043498389 1.1023335
-0.24563065 -0.045259051 1.1057584
-0.23747127 -0.046030529 1.1090001
-0.28210399 -0.035119507 1.1040001
-0.27845886 -0.035405423 1.102
-0.25412413 -0.035302997 1.1034229
-0.24565507 -0.035942312 1.1083041
-0.23496753 -0.038519271 1.1090001
-0.2815066 -0.026595857 1.1036251
-0.27545816 -0.02363454 1.1036111
-0.26446497 -0.022968723 1.1021667
-0.25499159 -0.024925074 1.104
-0.24877025 -0.029210446 1.1090001
-0.27333483 -0.017161367 1.1067144
-0.2654402 -0.017641434 1.1024287
-0.2521944 -0.018219659 1.1043334
-0.24718644 -0.016351007 1.1076667
0.057543799 -0.29738614 1.11375
0.065116994 -0.29489106 1.1144999
0.073647708 -0.29375112 1.115
0.076885924 -0.28868154 1.11375
0.084981389 -0.28655502 1.1142501
0.094882213 -0.28465039 1.115
0.10424317 -0.28144273 1.1160001
0.09825626 -0.2780169 1.113
0.1054448 -0.27512044 1.1140501
0.11549697 -0.27420738 1.1158499
0.10727651 -0.26632738 1.113
0.11388631 -0.26543924 1.1152499
0.10655953 -0.25443798 1.114143
0.1128955 -0.2582545 1.1160001
0.097376108 -0.24332507 1.1136924
0.1036259 -0.24606171 1.1153077
0.086375721 -0.23366374 1.1135
0.093530104 -0.23659 1.1153573
-0.30636624 -0.22615048 1.113
0.067651853 -0.2213182 1.113
0.075163804 -0.22500296 1.1145
0.082828954 -0.22857201 1.1147144
-0.30636624 -0.21551947 1.113
0.049333494 -0.21377672 1.114
0.055347566 -0.21735729 1.1150001
0.063793845 -0.21870279 1.1150001
-0.31184351 -0.2021459 1.1160001
-0.30684945 -0.20343876 1.113
-0.31171432 -0.19801128 1.1160001
-0.30571249 -0.19442363 1.1139474
-0.30539978 -0.18845873 1.113
-0.30636624 -0.17106254 1.113
-0.22655512 -0.17201596 1.1150001
-0.30572191 -0.16494167 1.113
-0.22482072 -0.16512312 1.1138183
-0.30478355 -0.15518537 1.1146666
-0.23119028 -0.15476827 1.114
-0.22584924 -0.15517521 1.1149285
-0.31078956 -0.14296675 1.1150001
-0.30464599 -0.14475866 1.1140909
-0.23162396 -0.14405575 1.1134285
-0.22794445 -0.14589739 1.1160001
-0.31125104 -0.13431685 1.1155001
-0.30469865 -0.1344527 1.1139601
-0.29863462 -0.13627017 1.113
-0.2412916 -0.13111573 1.113
-0.23476081 -0.13413259 1.1143125
-0.31106827 -0.12888499 1.1160001
-0.30404723 -0.12557404 1.1143335
-0.29863462 -0.12080688 1.113
-0.24119957 -0.12467271 1.113
-0.23720522 -0.12489673 1.115
-0.30304578 -0.11521482 1.115
-0.29824805 -0.11539473 1.113
-0.2406473 -0.11597461 1.113
-0.23699251 -0.11511148 1.1140001
-0.30476665 -0.10548502 1.1136254
-0.29863462 -0.1072765 1.113
-0.24169484 -0.10489456 1.1133749
-0.2376902 -0.10601526 1.115
-0.30485675 -0.094756044 1.113536
-0.29863462 -0.091813229 1.113
-0.24332365 -0.09452346 1.1142001
-0.23741971 -0.099813186 1.1160001
-0.30421677 -0.084391706 1.1147728
-0.29831246 -0.084725887 1.113
-0.25194737 -0.083635524 1.113
-0.24601704 -0.085114233 1.1150454
-0.30270508 -0.076294094 1.1153334
-0.29505548 -0.073424198 1.1136
-0.28897005 -0.071517676 1.113
-0.25289264 -0.075010054 1.113353
-0.24667808 -0.074088112 1.1158001
-0.28557631 -0.065025419 1.114
-0.24403597 -0.067099154 1.1145
-0.23769845 -0.06347008 1.1147144
-0.284522 -0.05516218 1.1145
-0.23448616 -0.054483898 1.113
-0.28503823 -0.046111107 1.1140001
-0.23455863 -0.0450368 1.1130002
-0.28742397 -0.036774784 1.1145
-0.24161376 -0.033825923 1.113
-0.23500967 -0.035678301 1.1130003
-0.28123841 -0.020295555 1.113
-0.27930552 -0.020295555 1.113
-0.25031185 -0.02319492 1.113
-0.24440221 -0.024963444 1.1131037
-0.23652822 -0.026553923 1.1143334
-0.27930552 -0.018362645 1.113
-0.25031185 -0.018362645 1.113
-0.24644603 -0.018362645 1.113
0.065228507 -0.30180937 1.1212
0.074236713 -0.30083698 1.12
0.085800231 -0.30138874 1.126
0.094272919 -0.30075997 1.127
0.10471145 -0.30043378 1.1270001
0.11337914 -0.30211139 1.127
0.12036924 -0.30043378 1.1270001
0.067104802 -0.29856774 1.12
0.077608161 -0.29740071 1.12
0.084712915 -0.2948404 1.12135
0.094526455 -0.29429916 1.1222497
0.10444419 -0.29478365 1.1240999
0.11412189 -0.29494748 1.1253159
0.12452088 -0.29408917 1.1263685
0.13420983 -0.29299816 1.1237273
0.14307304 -0.2922135 1.1270001
0.098225869 -0.28884241 1.12
0.10589809 -0.28624895 1.1200001
0.1156497 -0.28545758 1.1213844
0.12588607 -0.28501472 1.1215651
0.13542964 -0.28547254 1.1220399
0.14508674 -0.28464192 1.123889
0.1524677 -0.28242734 1.1270001
0.11637983 -0.27782038 1.12
0.12561975 -0.27503031 1.1201158
0.13549012 -0.2748732 1.1225333
0.14538187 -0.27514943 1.1236664
0.15293032 -0.274634 1.127
0.118788 -0.26411226 1.12
0.12557958 -0.26481298 1.1204447
0.1356629 -0.26448983 1.1239598
0.14581315 -0.26520377 1.1270003
0.15527306 -0.26487756 1.127
0.11619457 -0.25512794 1.1200002
0.12542814 -0.25463942 1.1216667
0.13554426 -0.25451106 1.1229997
0.14399162 -0.25627607 1.1258571
0.10749354 -0.24353378 1.12
0.11570494 -0.24546954 1.1210347
0.12499019 -0.24547017 1.124143
0.13505103 -0.24775361 1.1263846
0.14189869 -0.24954598 1.1270001
0.088500537 -0.2304904 1.12
0.095718756 -0.23329028 1.1209999
0.10392309 -0.23550376 1.123273
0.11325715 -0.23775358 1.1259999
0.12036924 -0.23975986 1.1270001
0.07642597 -0.22165173 1.1218182
0.084665507 -0.22416967 1.1228751
0.093864314 -0.2281249 1.1249092
0.100797 -0.22997375 1.1270001
0.05628996 -0.21334343 1.1204284
0.065910764 -0.21446019 1.122182
0.074293524 -0.21676382 1.1257501
0.08346159 -0.21683238 1.127
0.059483439 -0.20965475 1.123
0.064318106 -0.20951472 1.1222501
0.071185097 -0.20965475 1.123
-0.31296125 -0.19470116 1.12
-0.31106913 -0.17064922 1.123
-0.31217712 -0.1660378 1.1270001
-0.31229383 -0.15683091 1.1246001
-0.31121069 -0.14490747 1.12
-0.2304904 -0.14101733 1.12
-0.22661658 -0.14418797 1.122
-0.23154013 -0.13401043 1.120375
-0.22648154 -0.13480061 1.1253045
-0.3121832 -0.12740187 1.12
-0.30829307 -0.12351174 1.12
-0.23276612 -0.1256343 1.1216
-0.22763912 -0.12524462 1.1257499
-0.30845824 -0.11579555 1.1206
-0.23326381 -0.11516532 1.124
-0.22997375 -0.11449756 1.1270001
-0.24021573 -0.10017093 1.12
-0.23470636 -0.10417957 1.1240667
-0.24021573 -0.094335735 1.12
-0.23526114 -0.094691403 1.1242402
-0.31101617 -0.08461041 1.12
-0.306348 -0.088500537 1.12
-0.24170502 -0.083943605 1.1215001
-0.23621288 -0.08555562 1.1266365
-0.31106913 -0.078986205 1.123
-0.30764472 -0.076830141 1.12
-0.24280755 -0.075484678 1.1212
-0.23823121 -0.075142771 1.123889
-0.2929036 -0.066215754 1.1238571
-0.28874299 -0.063298032 1.1215
-0.24021573 -0.069049865 1.12
-0.23804605 -0.068524815 1.1220001
-0.2923972 -0.05573988 1.1262001
-0.28884241 -0.055434406 1.12
-0.29218951 -0.045928057 1.1253999
-0.28884241 -0.04570907 1.12
-0.29177409 -0.035711598 1.1238
-0.28961611 -0.030229289 1.123
0.10869797 -0.31127146 1.138
0.11126997 -0.31017736 1.1340001
0.087405562 -0.30542845 1.131
0.096176341 -0.30524483 1.1324999
0.10531402 -0.30609736 1.1334668
0.11513189 -0.30452737 1.1313002
0.12414476 -0.30374214 1.1336665
0.13162024 -0.30295631 1.1340001
0.15514165 -0.30138981 1.138
0.11883229 -0.29953593 1.131
0.12423376 -0.29953593 1.131
0.13061731 -0.29953593 1.131
0.14750925 -0.29431739 1.1314286
0.15483494 -0.2949627 1.1357393
0.16342323 -0.2929315 1.1375556
0.14829484 -0.28971508 1.131
0.15572993 -0.28591394 1.1315001
0.16474764 -0.28509963 1.1360803
0.17095226 -0.28360289 1.138
0.19071552 -0.28459105 1.138
0.15680625 -0.27482012 1.1310002
0.16451731 -0.27484664 1.1344802
0.17475288 -0.2734172 1.1380002
0.19071552 -0.27965024 1.138
0.1537945 -0.26241308 1.1310002
0.16415012 -0.26440576 1.1319603
0.17466205 -0.26544446 1.1364003
0.14681086 -0.2526879 1.1313335
0.15472648 -0.25444254 1.1333337
0.16469538 -0.25439245 1.1347934
0.17457359 -0.25491184 1.1362861
0.18281022 -0.25325215 1.1380002
0.12636161 -0.24126555 1.131
0.13510342 -0.24341443 1.1327647
0.14518832 -0.2444599 1.1352146
0.15487225 -0.24461749 1.1375718
0.16427888 -0.24484491 1.1378185
0.17095226 -0.24704084 1.138
0.18379837 -0.24802901 1.138
0.10708857 -0.23199983 1.1314286
0.11604433 -0.23365851 1.1335002
0.12517865 -0.23457931 1.1351001
0.13523655 -0.23493084 1.1368004
0.14476576 -0.23612137 1.1377649
0.15500048 -0.23631218 1.1380002
0.16265169 -0.23735683 1.138
0.089076243 -0.22145453 1.1335001
0.095631704 -0.22437982 1.1341581
0.10544693 -0.22665484 1.1349002
0.11521835 -0.22777493 1.1370769
0.12549676 -0.22727756 1.1380001
0.13439021 -0.22826573 1.138
0.077023521 -0.21423484 1.131
0.084915482 -0.21604915 1.1326667
-0.31230304 -0.16597237 1.131
-0.22227858 -0.13127203 1.131
-0.2159472 -0.13114855 1.1356001
-0.22323425 -0.12396049 1.1312003
-0.21541691 -0.12508094 1.1361432
-0.20850247 -0.12154409 1.138
-0.224968 -0.11493949 1.1313604
-0.21535651 -0.11550681 1.134778
-0.20973897 -0.11520873 1.1340001
-0.2318812 -0.10508309 1.131
-0.22476681 -0.10548496 1.1353337
-0.21519487 -0.10562162 1.1368002
-0.23078999 -0.095262244 1.131
-0.22493941 -0.095765397 1.1353452
-0.2150635 -0.095692769 1.1361002
-0.23078999 -0.088387653 1.131
-0.22597122 -0.08874888 1.1342223
-0.21574901 -0.089264095 1.138
-0.30138981 -0.070159599 1.138
-0.29818228 -0.064125441 1.1361251
-0.30138981 -0.05336082 1.138
-0.29705051 -0.05465211 1.1330911
-0.30138981 -0.043808579 1.138
-0.29698434 -0.04425244 1.1325001
-0.29701453 -0.034271225 1.1336365
-0.2994135 -0.028656738 1.138
0.1283692 -0.30748901 1.146
0.13035941 -0.30748901 1.146
0.15899242 -0.30311027 1.1420001
0.15965351 -0.29848266 1.1420001
0.16642043 -0.29638213 1.1425
0.17460427 -0.29448894 1.14575
0.18405631 -0.29373169 1.1457647
0.17578416 -0.28483939 1.1437143
0.18542539 -0.28532869 1.1443077
0.19436079 -0.28162482 1.1420001
0.17589085 -0.27822271 1.1425716
0.18451312 -0.27555442 1.1437778
0.19429681 -0.27764422 1.1447692
0.18440294 -0.26484975 1.1437778
0.19245428 -0.26251003 1.146
0.17651133 -0.25088409 1.1420001
0.18675824 -0.25650337 1.1420001
0.19006602 -0.25640669 1.146
0.16857824 -0.24195935 1.1420001
0.17495985 -0.24548587 1.1440001
0.18077832 -0.24745069 1.146
0.19006601 -0.24977262 1.146
0.14621131 -0.2319328 1.1420001
0.15586728 -0.23231341 1.1420001
0.16523053 -0.23417737 1.1430666
0.17101677 -0.23726265 1.146
0.096188761 -0.22113498 1.1420001
0.10423195 -0.22235899 1.1432002
0.1145679 -0.22400367 1.1440001
0.12615667 -0.22474942 1.1440001
0.13531239 -0.2253866 1.1441333
0.14461938 -0.22714943 1.1451111
0.15500996 -0.22572297 1.1443334
0.16434835 -0.22540116 1.1458182
0.092019364 -0.21881619 1.1444
0.15523717 -0.21991932 1.146
0.16120782 -0.21991932 1.146
-0.21121861 -0.12891278 1.1420001
-0.20923534 -0.12494622 1.1420001
-0.22113499 -0.091230571 1.1420001
-0.21915171 -0.090238936 1.1420001
-0.22212663 -0.087264031 1.1420001
-0.21915171 -0.087264031 1.1420001
-0.31146944 -0.074633256 1.146
-0.30549878 -0.071647927 1.146
-0.30478519 -0.064136036 1.1444615
-0.30583537 -0.055024073 1.1445454
-0.30537546 -0.044854049 1.1436667
-0.3047902 -0.034747805 1.1433334
-0.30366904 -0.028003056 1.1436001
0.12781867 -0.31155801 1.1500001
0.13081442 -0.31155801 1.1500001
0.16676344 -0.30518246 1.1499999
0.17437142 -0.303657 1.1511664
0.18140931 -0.30123931 1.1500001
0.17874642 -0.29857641 1.1500001
0.18074359 -0.29857641 1.1500001
0.18473792 -0.28659344 1.1500001
0.18806654 -0.27194753 1.1500001
0.19443198 -0.27316624 1.1503527
0.18873225 -0.26861891 1.1500001
0.1954633 -0.26529685 1.1506313
0.18873225 -0.25064442 1.1500001
0.1954322 -0.25494066 1.1509544
0.201937 -0.25417939 1.1570001
0.1771487 -0.24145746 1.1500001
0.18540363 -0.24417743 1.1499999
0.19523932 -0.24487111 1.1521152
0.20141339 -0.24249512 1.154
0.16876058 -0.23067276 1.1500001
0.17555095 -0.23406796 1.1499999
0.18512352 -0.23472421 1.1514229
0.19474386 -0.23519075 1.1550415
0.097861171 -0.22068693 1.1500001
0.10433709 -0.22043717 1.1526251
0.11558602 -0.22143587 1.1500001
0.12432363 -0.22218479 1.15
0.13436493 -0.22157454 1.1500001
0.14540911 -0.22253047 1.1499999
0.15078609 -0.2216855 1.1500001
0.16676342 -0.22068693 1.1500001
0.17478937 -0.22472751 1.1502398
0.18511711 -0.22494832 1.1538398
0.19349784 -0.22725448 1.1570001
0.095588639 -0.21754104 1.1533332
0.1083159 -0.21863592 1.155
0.1155866 -0.21680647 1.1541666
0.12545101 -0.21565111 1.1542498
0.13503669 -0.2150581 1.1519599
0.14479458 -0.21469541 1.1499997
0.15478043 -0.21469544 1.1499997
0.16476627 -0.21469538 1.1499997
0.17484535 -0.21480739 1.1505998
0.18417619 -0.21501759 1.154111
0.13626581 -0.20630643 1.1555998
0.1450506 -0.20507023 1.15204
0.15495831 -0.20494141 1.1513199
0.1650078 -0.20500576 1.1516799
0.17518991 -0.20522188 1.15288
0.18524329 -0.20528327 1.1541666
0.13884425 -0.19832022 1.1570001
0.1460079 -0.19615664 1.1550951
0.15520519 -0.19525827 1.15316
0.16519609 -0.19523172 1.153
0.17514382 -0.19551004 1.1536666
0.18425064 -0.19763631 1.1563333
0.14969459 -0.18586242 1.1570001
0.15528908 -0.18534836 1.1537999
0.16526625 -0.18529557 1.1534799
0.17452745 -0.18593793 1.1561577
0.14969459 -0.17631811 1.1570001
0.1556353 -0.17571662 1.1563598
0.16523533 -0.17618768 1.1564543
0.17330414 -0.17933211 1.1570001
0.15873656 -0.16978782 1.1570001
0.16375984 -0.16978782 1.1570001
-0.32048708 -0.072335646 1.1570001
-0.31475943 -0.072481327 1.1539999
-0.30896473 -0.071993083 1.1515
-0.32048708 -0.068316996 1.1570001
-0.31415147 -0.065495834 1.1541175
-0.30856225 -0.067903668 1.1500001
-0.31377983 -0.05484106 1.1535623
-0.32129082 -0.044807915 1.1570001
-0.31455523 -0.04507957 1.1536498
-0.32048708 -0.034158498 1.1570001
-0.31444553 -0.035050228 1.1532499
-0.31055942 -0.028958917 1.1500001
0.1986026 -0.23187105 1.161
0.20327409 -0.23363619 1.1658
0.19556049 -0.22368966 1.1619413
0.20267077 -0.22496085 1.1670001
0.09980537 -0.21775717 1.161
0.10497116 -0.2171808 1.1650001
0.11523341 -0.21297202 1.1655715
0.12373346 -0.21115725 1.1616668
0.13004942 -0.21070021 1.161
0.19500384 -0.21520573 1.1635602
0.20154047 -0.21470179 1.1663333
0.11876456 -0.20809175 1.169
0.12464549 -0.2056101 1.1655002
0.13216908 -0.20372684 1.1619232
0.19604838 -0.20519577 1.1651905
0.20200126 -0.2050465 1.169
0.1263947 -0.19637543 1.168
0.1342575 -0.19490136 1.1640002
0.14306353 -0.1921872 1.1610001
0.18539338 -0.19274233 1.1621429
0.19535606 -0.19568717 1.1666669
0.12857701 -0.18643667 1.169
0.13474327 -0.18540265 1.1667603
0.14429988 -0.18466477 1.16212
0.1784399 -0.18146431 1.161
0.18484885 -0.18484522 1.1632402
0.19552189 -0.18571641 1.1676669
0.20200126 -0.18677503 1.169
0.12891537 -0.17662421 1.169
0.13481691 -0.17536877 1.1674002
0.14441741 -0.17471899 1.1630801
0.15263164 -0.17118134 1.161
0.16835855 -0.17138296 1.161
0.1749215 -0.17400283 1.1613635
0.18504947 -0.17493477 1.1645204
0.19501232 -0.17568737 1.1682383
0.13683723 -0.16592284 1.1684666
0.14467736 -0.16491258 1.1651604
0.1544989 -0.16459361 1.1629202
0.16455472 -0.16454941 1.1626002
0.17493702 -0.16482258 1.1645203
0.18512438 -0.16489218 1.1650004
0.19433811 -0.16560835 1.1676668
0.13906619 -0.15936783 1.169
0.14533298 -0.15556668 1.1683046
0.15483847 -0.15483847 1.1654804
0.16489218 -0.15477608 1.1650004
0.17500828 -0.15477608 1.1650004
0.18527746 -0.1549006 1.1659604
0.19320591 -0.15647106 1.1686
0.14759287 -0.14657779 1.1689999
0.15524291 -0.14509539 1.1685203
0.16520922 -0.14493397 1.1672404
0.17532156 -0.14491437 1.1670803
0.18529855 -0.14561805 1.1690001
0.19185044 -0.14921701 1.169
0.15632257 -0.13744205 1.1689999
0.16568388 -0.13624652 1.1690001
0.17444904 -0.13631096 1.1689999
0.18372978 -0.13855866 1.169
-0.32459825 -0.063662209 1.1638
-0.3195788 -0.063512504 1.161
-0.32528913 -0.055376679 1.1639477
-0.3195788 -0.05645556 1.161
-0.32518089 -0.046012111 1.1616155
-0.3239319 -0.037914783 1.162143
0.20778522 -0.23121199 1.1730001
0.20778522 -0.22510067 1.1730002
0.2108409 -0.222045 1.1730001
0.10589868 -0.21460664 1.1755
0.11280501 -0.21194334 1.1746
0.20676666 -0.21491513 1.1730002
0.2108409 -0.21797077 1.1730001
0.11814827 -0.20592982 1.1755
0.12120805 -0.2016739 1.1730001
0.20682931 -0.20519266 1.1756668
0.21155988 -0.20951581 1.177
0.11957732 -0.19827351 1.177
0.12284052 -0.19385614 1.1744547
0.20378724 -0.19521889 1.1746001
0.12500031 -0.18501417 1.1748825
0.2042128 -0.1847108 1.1752224
0.12718327 -0.17431106 1.1751819
0.1313936 -0.17009869 1.1730001
0.2016739 -0.17417291 1.1730002
0.12928659 -0.16710164 1.177
0.13304499 -0.16446859 1.1750001
0.19861823 -0.1629688 1.1730001
0.20209602 -0.16487424 1.1761112
0.13673976 -0.15510848 1.1752001
0.14259771 -0.15176471 1.1730001
0.19769071 -0.15445827 1.175182
0.13764098 -0.14626449 1.1761112
0.14319417 -0.14397119 1.1743335
0.18843268 -0.14157915 1.1730001
0.19415283 -0.14490943 1.1752502
0.14644869 -0.13613835 1.1751055
0.15485229 -0.13371333 1.1732502
0.16466638 -0.13241215 1.1730002
0.17544609 -0.13317607 1.1730002
0.18475321 -0.13468695 1.1742002
0.1920331 -0.13721317 1.1763334
0.14819412 -0.12979761 1.177
0.15510121 -0.12736151 1.1763685
0.16453466 -0.12516153 1.1743915
0.17446107 -0.12548512 1.1749202
0.18336751 -0.12724791 1.1766924
0.16659063 -0.11855529 1.177
0.17306347 -0.11889597 1.177
0.18089902 -0.11957732 1.177
-0.3310304 -0.060094748 1.1730001
-0.33306751 -0.055001974 1.1730001
0.10714279 -0.21179457 1.1815716
0.11280519 -0.21022785 1.1810001
0.10724775 -0.20545143 1.1863334
0.11354634 -0.20448142 1.1839089
0.21022785 -0.20202383 1.1810001
0.11605877 -0.19481385 1.1854998
0.20749319 -0.19484532 1.1810001
0.21022785 -0.19176881 1.1810001
0.11713455 -0.18573718 1.1864119
0.12121239 -0.18284668 1.1830001
0.20776665 -0.18397501 1.1810001
0.21129917 -0.18369988 1.1818889
0.11814159 -0.17536871 1.189
0.12266348 -0.17512877 1.1831335
0.20736286 -0.1755369 1.1822001
0.2133286 -0.17473464 1.1860667
0.11838741 -0.1648476 1.189
0.12402013 -0.16505015 1.1835598
0.13092238 -0.16168743 1.1810001
0.20768261 -0.16480692 1.1850002
0.21354327 -0.16451065 1.1887499
0.11873156 -0.1579646 1.189
0.124821 -0.15532722 1.1846521
0.13154392 -0.15447783 1.181
0.20552926 -0.15507397 1.1843684
0.21435215 -0.15558203 1.189
0.12618074 -0.14595085 1.1871176
0.13313635 -0.14407927 1.1814444
0.19920371 -0.14382662 1.1810001
0.20590563 -0.1451579 1.1855999
0.21165192 -0.14557521 1.189
0.1281189 -0.13585183 1.1875
0.13453677 -0.13454038 1.1827599
0.14254475 -0.13266264 1.181
0.19658867 -0.13362287 1.181
0.2061116 -0.13499978 1.1867999
0.21242625 -0.1347345 1.189
0.12905605 -0.12802359 1.189
0.13495582 -0.12495302 1.1848179
0.14459576 -0.12511119 1.181
0.154338 -0.12280384 1.1810001
0.18732499 -0.12442752 1.181
0.19555475 -0.12468225 1.1827998
0.20504041 -0.12467104 1.186565
0.21268436 -0.12802359 1.189
0.12883896 -0.1113186 1.187
0.13569714 -0.11408016 1.1855453
0.14453246 -0.11549626 1.1817406
0.15485077 -0.11588169 1.1809999
0.16445808 -0.11491018 1.181
0.1759005 -0.11480221 1.181
0.18529285 -0.11494365 1.1823332
0.19484644 -0.11427761 1.1856666
0.20313421 -0.11692479 1.189
0.12905605 -0.10840708 1.189
0.13607204 -0.10621497 1.1856669
0.1450284 -0.1054524 1.183087
0.15510206 -0.1052845 1.1823331
0.16490978 -0.10528447 1.1823331
0.17466725 -0.10549808 1.1829046
0.18408492 -0.10543372 1.1865555
0.19292964 -0.10493709 1.1881429
0.1467744 -0.098327816 1.187
0.15364248 -0.097957127 1.1875001
0.16491039 -0.098946594 1.187
0.1728678 -0.099810578 1.1850001
0.19410029 -0.098082595 1.189
0.10584115 -0.20182195 1.1950001
0.10774332 -0.1959738 1.1954
0.11084362 -0.19578919 1.1930001
0.10854805 -0.18529308 1.1943334
0.11235043 -0.18448824 1.193
0.10901491 -0.17753625 1.1956667
0.11377355 -0.17498365 1.194778
0.21857947 -0.17196301 1.1930001
0.22065133 -0.17092708 1.1930001
0.10913648 -0.16526382 1.197
0.11396533 -0.16475581 1.1948949
0.21857949 -0.16471156 1.1930001
0.2215897 -0.16593619 1.1943334
0.11559236 -0.15502547 1.1950002
0.12120284 -0.15124458 1.1930001
0.21750028 -0.15235244 1.1935713
0.22114454 -0.15330917 1.1956667
0.11820757 -0.14485388 1.1970001
0.12239115 -0.1436536 1.1945001
0.2169489 -0.14481631 1.1945384
0.22139116 -0.14447591 1.197
0.11869892 -0.1365765 1.197
0.12407539 -0.13522673 1.1945001
0.21708421 -0.13582982 1.1940907
0.22139114 -0.13512135 1.197
0.12669808 -0.12553222 1.1960001
0.13156205 -0.12223876 1.1930001
0.21582659 -0.12446839 1.1939412
0.22139114 -0.12784559 1.197
0.12771603 -0.11692022 1.1958002
0.13208002 -0.11757711 1.1930001
0.2056665 -0.11382201 1.1938
0.21416315 -0.11887944 1.1964285
0.17921445 -0.1004844 1.1930001
0.18631792 -0.10107635 1.193
0.1984261 -0.10368634 1.193
0.20436992 -0.10514859 1.1955717
0.15772407 -0.095462829 1.1950001
0.16551054 -0.095063023 1.1955715
0.17506799 -0.095318496 1.1958004
0.18521969 -0.096722119 1.1957694
0.19438626 -0.096327253 1.1950001
0.20268202 -0.098049603 1.197
0.16942139 -0.088348575 1.197
0.17461836 -0.088348575 1.197
0.19644566 -0.088348575 1.197
0.10875736 -0.17263404 1.202
0.10959236 -0.1680416 1.202
0.11307148 -0.15273347 1.202
0.22515015 -0.15184546 1.2060001
0.11418125 -0.14531241 1.2023636
0.22640327 -0.14474569 1.2032307
0.11674939 -0.13434382 1.202
0.12072554 -0.13116291 1.202
0.2265923 -0.13470314 1.2025332
0.2322188 -0.13430469 1.2060002
0.11833473 -0.12880683 1.2060001
0.12237811 -0.12524839 1.202
0.22579509 -0.12385673 1.2019999
0.23269644 -0.12458043 1.2056366
0.20979108 -0.11272357 1.202
0.215308 -0.11436371 1.2019999
0.22465716 -0.11521532 1.2045263
0.23143342 -0.11728752 1.2060001
0.20926921 -0.10593928 1.202
0.21483898 -0.1055479 1.2046666
0.22235759 -0.10856077 1.2060002
0.1589959 -0.091500916 1.202
0.16491039 -0.091500916 1.202
0.17482589 -0.091326959 1.202
0.18474139 -0.091848835 1.2019999
0.19555831 -0.092133492 1.2019999
0.20509298 -0.094125159 1.20275
0.21153642 -0.09948495 1.2060001
0.16491039 -0.088717617 1.202
0.17513901 -0.08746513 1.202
0.18384676 -0.088121198 1.202
0.19465689 -0.088717617 1.202
0.2047452 -0.08879143 1.2030001
0.23497137 -0.14333467 1.2150002
0.24133763 -0.14078029 1.2190001
0.23707373 -0.13531856 1.2122222
0.24452168 -0.13407408 1.2183334
0.25086412 -0.13125381 1.2190001
0.23757118 -0.12503131 1.21
0.2450334 -0.12503177 1.2172352
0.25192261 -0.1249028 1.219
0.22799829 -0.11032175 1.21
0.23546945 -0.11432306 1.212579
0.24496558 -0.11554797 1.2184737
0.25192261 -0.11749332 1.219
0.21959282 -0.10191628 1.21
0.22557375 -0.10347471 1.2132779
0.23447646 -0.10485552 1.2172104
0.2409848 -0.10831966 1.2190001
0.21485136 -0.095266201 1.2115555
0.22408761 -0.095803753 1.2186153
0.234533 -0.09662579 1.219
0.20766886 -0.087495007 1.2140001
0.21491146 -0.088204943 1.2179999
0.22263749 -0.089266695 1.2190001
0.23894364 -0.14549012 1.223
0.24472652 -0.14381289 1.2247778
0.2510899 -0.1424145 1.2270001
0.24871378 -0.13741913 1.223
0.25526798 -0.13487723 1.22425
0.26304337 -0.13220635 1.2264287
0.25699717 -0.12425069 1.2229999
0.26367342 -0.12439394 1.2243998
0.24850138 -0.11150703 1.223
0.25579163 -0.11407671 1.2240001
0.26351833 -0.11579645 1.2253335
0.23894364 -0.10088731 1.223
0.2448754 -0.10553209 1.2243333
0.25251046 -0.10903054 1.2270001
0.22690797 -0.093099527 1.223
0.23328714 -0.094547078 1.2234001
0.24106757 -0.098763369 1.223
0.21770419 -0.086019717 1.223
0.22301406 -0.087081686 1.223
0.23646367 -0.15174386 1.2350001
0.24470329 -0.15132967 1.2360001
0.25006959 -0.15132967 1.2360001
0.23856243 -0.14870036 1.2320001
0.24529794 -0.14846556 1.2336
0.25579408 -0.14579013 1.2345002
0.26496899 -0.14362745 1.2360001
0.27475455 -0.14167032 1.2360001
0.28012088 -0.14059706 1.2360001
0.26623523 -0.13638817 1.2324446
0.27453446 -0.13512266 1.2350001
0.28119412 -0.13523076 1.2360001
0.27440205 -0.12540784 1.2344002
0.28119412 -0.12664469 1.2360001
0.25888836 -0.11018803 1.2320001
0.26595098 -0.11156997 1.2325002
0.27371123 -0.11610096 1.2353847
0.24819052 -0.10269952 1.2320001
0.25503272 -0.10525474 1.2344002
0.26418301 -0.10701384 1.2355001
0.24417765 -0.097457111 1.2333335
0.25006959 -0.099813186 1.2360001
0.25053066 -0.16159771 1.2490001
0.23724799 -0.15618603 1.24475
0.24530555 -0.15604176 1.2435833
0.25532547 -0.15562826 1.2436111
0.26500282 -0.15567796 1.2444707
0.27452815 -0.15533696 1.2441669
0.28547344 -0.15402396 1.2476668
0.29174352 -0.15075222 1.2490001
0.26552242 -0.14923525 1.24
0.27487466 -0.14766629 1.2399999
0.28482866 -0.14482361 1.240263
0.29486531 -0.14499359 1.2476667
0.3004199 -0.14207584 1.2490001
0.2874878 -0.13459167 1.2399999
0.29493234 -0.13504077 1.2441334
0.30103964 -0.13525867 1.249
0.28642485 -0.12480409 1.2408332
0.29438934 -0.12516424 1.2467692
0.3004199 -0.12906125 1.2490001
0.2774964 -0.11281325 1.2407142
0.28497529 -0.11607143 1.2441669
0.29205221 -0.11811938 1.248
0.25698036 -0.10085403 1.2399999
0.26536584 -0.10275542 1.240909
0.27342707 -0.10620811 1.2456
0.28089803 -0.10953938 1.2490001
0.24601404 -0.094846964 1.2412499
0.25475124 -0.095913611 1.2431428
0.26298025 -0.097760148 1.2463332
0.2365436 -0.16465722 1.2568125
0.2443895 -0.16428924 1.2555791
0.25428757 -0.16589209 1.256857
0.26413026 -0.16433476 1.2560834
0.27564707 -0.16417663 1.256857
0.28531379 -0.16394211 1.2567778
0.2948795 -0.16382521 1.2577502
0.30462578 -0.16340598 1.2590001
0.31157103 -0.1617983 1.2590001
0.28637809 -0.15788905 1.2540001
0.29572973 -0.15507072 1.2539999
0.30542406 -0.15489455 1.2561874
0.31426206 -0.15465024 1.2589999
0.32031688 -0.15195921 1.2590001
0.29835588 -0.14917794 1.2540001
0.30525216 -0.14518534 1.2539999
0.3144787 -0.14522788 1.2575002
0.32265952 -0.14508748 1.2589999
0.30641362 -0.13502237 1.2539999
0.3144176 -0.13458431 1.2579474
0.32086352 -0.13720058 1.2590001
0.29890034 -0.12250013 1.2540001
0.30531934 -0.12509596 1.2550527
0.31302869 -0.12499282 1.2589999
0.28913113 -0.11128604 1.2565
0.29574779 -0.11436894 1.2561427
0.30438694 -0.11603872 1.2589999
0.31157103 -0.11916225 1.2590001
0.27694565 -0.10394356 1.2556667
0.28458989 -0.10844818 1.2573334
0.26677805 -0.097637139 1.2540001
0.27199847 -0.0976559 1.2580001
0.24463803 -0.17311774 1.2671667
0.25420734 -0.17325754 1.2655001
0.2664533 -0.17286433 1.268
0.27570263 -0.17316842 1.267
0.28471959 -0.17369273 1.2659999
0.29418978 -0.17316842 1.2670001
0.30593368 -0.17223516 1.268
0.31474206 -0.17160599 1.268
0.24785534 -0.16998927 1.263
0.25918797 -0.16925813 1.263
0.26606065 -0.1695506 1.263
0.27433294 -0.16936259 1.2629999
0.28514332 -0.16998927 1.263
0.29501367 -0.16998927 1.263
0.30488399 -0.16889256 1.263
0.31532833 -0.16498204 1.2638334
0.32285133 -0.16454531 1.268
0.31841004 -0.15829109 1.263
0.32546306 -0.1553183 1.2651875
0.33317673 -0.15172423 1.268
0.32681811 -0.14476506 1.263
0.33439094 -0.14519598 1.2667499
0.31914118 -0.1305079 1.263
0.32571471 -0.1343729 1.2645626
0.33288312 -0.13836487 1.268
0.31749612 -0.12502438 1.263
0.32267821 -0.12488738 1.2676152
0.29830378 -0.11076721 1.263
0.30711707 -0.11237565 1.2646667
0.31415433 -0.11643221 1.265
0.27965978 -0.10199357 1.263
0.28584009 -0.10362358 1.2664615
0.29405665 -0.10596004 1.26675
0.30287948 -0.10596169 1.2675453
0.27728447 -0.096698903 1.2655001
0.2807669 -0.096892111 1.268
0.27610657 -0.18074445 1.2770001
0.2856054 -0.1811759 1.2755716
0.29466847 -0.18167639 1.27575
0.30493695 -0.18185332 1.2770002
0.31491673 -0.18185332 1.2770001
0.32489648 -0.18074445 1.2770001
0.33376738 -0.18074445 1.2770001
0.34263825 -0.18074445 1.2770001
0.24949388 -0.176309 1.2770001
0.25643066 -0.17678189 1.274
0.26528114 -0.17640394 1.275889
0.27456996 -0.17678103 1.2740002
0.28496617 -0.17782773 1.2720001
0.29573527 -0.17699933 1.2720002
0.30484751 -0.1767232 1.2720002
0.31498906 -0.17642196 1.2720002
0.32488951 -0.17460155 1.272625
0.33450851 -0.17464565 1.274353
0.34478143 -0.17516275 1.2767224
0.35317242 -0.172428 1.2770001
0.32656977 -0.16715069 1.2720002
0.33466956 -0.16457348 1.2719998
0.34562898 -0.16506043 1.2757502
0.35400409 -0.1650818 1.2770002
0.33647695 -0.15573733 1.2720002
0.34503707 -0.15482356 1.2735627
0.35483575 -0.15524064 1.2770002
0.33908764 -0.14027405 1.2720001
0.34508803 -0.14488988 1.2737501
0.35372686 -0.14667217 1.2770002
0.33636883 -0.13415669 1.2720002
0.34562942 -0.13514869 1.2757502
0.35150915 -0.13638999 1.2770001
0.32730612 -0.1229699 1.2720002
0.33387578 -0.1252213 1.2738421
0.34263825 -0.12807353 1.2770001
0.31636286 -0.11296965 1.2730001
0.32455748 -0.1152871 1.2751253
0.33154964 -0.11753934 1.2770001
0.28496617 -0.10051132 1.2720001
0.29637954 -0.10247491 1.2720002
0.30595204 -0.10398267 1.2720002
0.31349012 -0.10648251 1.2743078
0.32046103 -0.10977731 1.2770001
0.28541175 -0.094593406 1.2736669
0.2943123 -0.095727548 1.2755716
0.28497398 -0.1911002 1.2870001
0.2967082 -0.19165897 1.2870001
0.30285469 -0.19221775 1.2870001
0.26396826 -0.1821785 1.2845001
0.27414611 -0.18366875 1.2841429
0.28497642 -0.18589559 1.285
0.29475689 -0.18705754 1.2831111
0.30492604 -0.18746796 1.2842222
0.31508595 -0.18722057 1.2842222
0.32515696 -0.1863905 1.2853333
0.33550045 -0.18584467 1.284857
0.34554118 -0.18493165 1.2844999
0.35438263 -0.18366398 1.2850001
0.26494241 -0.17922574 1.2820001
0.35603952 -0.17625718 1.2819999
0.36487848 -0.17517516 1.2870001
0.35956469 -0.16512518 1.2820001
0.36584544 -0.16507809 1.2845
0.37214246 -0.16427912 1.2870001
0.3655605 -0.15491459 1.2835
0.37214249 -0.15533875 1.2870001
0.35733828 -0.14443813 1.2820001
0.36550063 -0.1458382 1.2866154
0.35551971 -0.13445956 1.2839999
0.36096704 -0.13634048 1.2870001
0.33952704 -0.12133916 1.2820001
0.34633476 -0.12443407 1.2847272
0.35264722 -0.12662974 1.286
0.32704538 -0.1108712 1.2832501
0.33540863 -0.11584821 1.2842221
0.34159628 -0.11883229 1.2870001
0.31948936 -0.10575432 1.2820001
0.32476908 -0.10609983 1.2835
0.30643019 -0.20092134 1.2926666
0.31285009 -0.20143944 1.296
0.32567921 -0.20188959 1.296
0.2752825 -0.1919128 1.294
0.2848936 -0.1931899 1.2924286
0.29422238 -0.19482394 1.2928182
0.30616871 -0.1962636 1.2915556
0.31491411 -0.19506329 1.2926667
0.32523882 -0.19577257 1.2940555
0.33512306 -0.19452927 1.293857
0.34540078 -0.19371511 1.2939999
0.35561377 -0.19356191 1.296
0.36492357 -0.19264115 1.2959999
0.37324443 -0.19168633 1.296
0.38374776 -0.19018584 1.296
0.26731905 -0.18645158 1.2934999
0.27447867 -0.18763395 1.2917143
0.28361765 -0.18889159 1.291
0.33070043 -0.1894521 1.291
0.34527367 -0.1894521 1.291
0.35632369 -0.18881151 1.291
0.36571062 -0.18462309 1.2910001
0.37523824 -0.18425053 1.2938125
0.38409403 -0.18429932 1.2959998
0.39049992 -0.18118297 1.296
0.36881503 -0.17824192 1.291
0.37464437 -0.17510304 1.2910001
0.3844116 -0.17534693 1.2944374
0.39162529 -0.17555615 1.296
0.37635648 -0.16519734 1.2910001
0.38376278 -0.16494924 1.2922502
0.39162529 -0.16542792 1.2959999
0.37666219 -0.15470053 1.291
0.38450462 -0.15514828 1.2947497
0.39140022 -0.15597491 1.296
0.36702141 -0.14102411 1.291
0.37528056 -0.14442199 1.2926668
0.38284752 -0.14584665 1.2959999
0.36622804 -0.13426352 1.2910001
0.37497669 -0.13521402 1.2945713
0.38149706 -0.13841929 1.296
0.35664928 -0.12388679 1.2925385
0.3643353 -0.12661569 1.2949998
0.37249419 -0.12941641 1.296
0.3360717 -0.11164878 1.2922499
0.3453632 -0.11581296 1.293143
0.35351169 -0.11771026 1.2951666
0.33505344 -0.10702181 1.2943333
0.31860599 -0.20323169 1.3026668
0.32554749 -0.20470177 1.3024286
0.33531338 -0.20538925 1.3041819
0.34474918 -0.20299377 1.3060001
0.35467207 -0.20214322 1.3060001
0.36516196 -0.20299377 1.3060001
0.37536836 -0.20185971 1.3060001
0.2699987 -0.19091959 1.3010001
0.3355214 -0.19995721 1.3010001
0.3442362 -0.1989889 1.301
0.35472631 -0.19845094 1.3010001
0.36489367 -0.19882751 1.3010002
0.37524277 -0.19722791 1.3016253
0.38419756 -0.19452514 1.302429
0.3927581 -0.19241384 1.3050002
0.38974705 -0.18640079 1.3010001
0.39474839 -0.18571021 1.3019093
0.4029977 -0.18340573 1.306
0.39765501 -0.17510377 1.3010002
0.40550151 -0.17431867 1.306
0.41165775 -0.17124055 1.3060001
0.39652529 -0.16493645 1.3010001
0.40355745 -0.16638039 1.306
0.38974708 -0.15025033 1.3010001
0.39524853 -0.15398173 1.3020003
0.40096527 -0.15568794 1.3060001
0.38781044 -0.14508598 1.301
0.39384964 -0.14547238 1.3054445
0.38483763 -0.13468973 1.3035002
0.39124495 -0.13948734 1.3060001
0.36649224 -0.1225392 1.3026668
0.37475258 -0.12698974 1.302875
0.38217261 -0.1281469 1.3060001
0.34689799 -0.11110517 1.3030002
0.3549557 -0.11390115 1.3024286
0.3623901 -0.11716892 1.3050002
0.3355214 -0.10506226 1.3010001
0.3456887 -0.10958107 1.3010001
0.34581056 -0.2111367 1.3143334
0.35538802 -0.21140444 1.3160001
0.36647969 -0.21283998 1.3129232
0.37510318 -0.21414956 1.3137273
0.380528 -0.21483262 1.3160001
0.32671651 -0.20832446 1.3110001
0.34606907 -0.20718606 1.311
0.35551369 -0.20738469 1.31225
0.36542159 -0.20718606 1.311
0.37602523 -0.2068155 1.31225
0.38519406 -0.20466824 1.3130833
0.39493406 -0.20386045 1.3145001
0.40376344 -0.20302445 1.3160001
0.41023889 -0.20226263 1.3160001
0.39605448 -0.1969406 1.311
0.40534395 -0.19519645 1.3136473
0.41468945 -0.19492513 1.3160001
0.40685883 -0.18692282 1.3110001
0.41506708 -0.18472797 1.3131876
0.42318979 -0.18474081 1.3160001
0.41498512 -0.17592427 1.311
0.42491636 -0.17476386 1.3154445
0.4071624 -0.16203013 1.311
0.4146353 -0.16485839 1.3112634
0.42413384 -0.16522163 1.3146667
0.40685883 -0.15436503 1.311
0.41536367 -0.15518832 1.3141252
0.42258033 -0.15701064 1.3160001
0.39815015 -0.14258271 1.311
0.40522912 -0.14507401 1.3121114
0.41357911 -0.14547789 1.3160001
0.38818929 -0.13091429 1.3110001
0.39501601 -0.13422066 1.3131429
0.40376344 -0.13750811 1.3160001
0.41023889 -0.13826993 1.3160001
0.37590659 -0.12340248 1.3118334
0.38545132 -0.12696138 1.3138572
0.39378363 -0.12821393 1.3160001
0.36757347 -0.1166658 1.3117143
0.37357929 -0.11755034 1.3143334
0.35559118 -0.21450178 1.3210001
0.36166626 -0.21642753 1.3222501
0.37967962 -0.21909006 1.3210001
0.38533276 -0.21572143 1.3237779
0.39388692 -0.21426696 1.3260001
0.40460548 -0.2111686 1.3260001
0.4122048 -0.21070804 1.3260001
0.38656202 -0.20991351 1.3210001
0.39459154 -0.20933996 1.3210001
0.40555438 -0.20698564 1.3218335
0.41550872 -0.20507841 1.3230835
0.42309919 -0.20325227 1.3245716
0.42579564 -0.1953721 1.3235002
0.43254638 -0.19305308 1.3260001
0.42785653 -0.18697214 1.3210001
0.43458042 -0.18509871 1.3240001
0.44099003 -0.18537702 1.3260001
0.43556455 -0.17468365 1.3235002
0.44099003 -0.17846856 1.3260001
0.4278565 -0.16173664 1.3210001
0.43525609 -0.16435143 1.3247502
0.42604733 -0.15365098 1.3225001
0.43350589 -0.15716746 1.3260001
0.41791525 -0.14338355 1.3210001
0.42305982 -0.14527768 1.3243335
0.40637836 -0.13301785 1.3237275
0.41411686 -0.13631183 1.3247501
0.42026466 -0.13932061 1.3260001
0.37967962 -0.12044218 1.3210001
0.38528407 -0.12267967 1.3235002
0.39521539 -0.12462247 1.3255455
0.401337 -0.12764297 1.3243334
0.37853256 -0.11700097 1.3210001
0.38434067 -0.11767411 1.3260001
0.38948831 -0.22074857 1.3310001
0.39449659 -0.22151907 1.3310002
0.40641937 -0.22157784 1.3360001
0.41415334 -0.22157784 1.3360001
0.39719334 -0.21766657 1.3310001
0.40558323 -0.21691608 1.3330003
0.41530773 -0.21593153 1.3338574
0.42427635 -0.21445838 1.3350003
0.43416494 -0.21316715 1.3360002
0.44199556 -0.21229708 1.3360001
0.42647243 -0.20787022 1.3310002
0.435381 -0.20611347 1.3335001
0.444289 -0.2058751 1.3348464
0.43571839 -0.19763355 1.3310002
0.44427195 -0.1957656 1.3321764
0.45243642 -0.19489568 1.3360002
0.44696027 -0.18526761 1.3335003
0.45243642 -0.18561491 1.3360002
0.44604969 -0.1751769 1.3330836
0.45243645 -0.1751741 1.3360002
0.444664 -0.16507532 1.3320715
0.45185637 -0.16647339 1.3360001
0.43546149 -0.1532013 1.3310002
0.44334793 -0.15511061 1.3330836
0.42820603 -0.1438911 1.3310001
0.43496293 -0.14556387 1.3344376
0.44276896 -0.14887865 1.3360001
0.41696951 -0.13239777 1.3310002
0.42519665 -0.13602656 1.3336926
0.43155473 -0.13805111 1.3360001
0.39526707 -0.12135393 1.3310001
0.40566885 -0.12408571 1.3310002
0.4134424 -0.12586389 1.3318336
0.42188728 -0.12799697 1.3360001
0.38717681 -0.11673092 1.3310001
0.3952671 -0.11904243 1.3310001
0.40220159 -0.11904243 1.3310001
0.41659597 -0.22373825 1.342
0.42456445 -0.22219869 1.34325
0.43470526 -0.22085777 1.3457501
0.44212583 -0.22106291 1.3470001
