# .PCD v0.7 - Point Cloud Data file format
VERSION 0.7
FIELDS x y z
SIZE 4 4 4
TYPE F F F
COUNT 1 1 1
WIDTH 1465
HEIGHT 1
VIEWPOINT 0 0 0 1 0 0 0
POINTS 1465
DATA ascii
0.22801827 -0.18980291 1.4670001
0.23519364 -0.18719551 1.4665387
0.24443533 -0.1858705 1.4661433
0.25502378 -0.18623617 1.4670004
0.26495975 -0.18598138 1.4670004
0.27444327 -0.18550402 1.4632503
0.28273237 -0.18372805 1.4617501
0.29178607 -0.18141481 1.4610001
0.2458521 -0.17961214 1.4670001
0.25774133 -0.17876291 1.4670001
0.26438075 -0.17706448 1.4670001
0.27557513 -0.17791368 1.4670001
0.28519341 -0.17570075 1.4662504
0.29432333 -0.17507167 1.4610003
0.30218887 -0.17431045 1.4610001
0.31081557 -0.17253438 1.4610001
0.32350194 -0.17126574 1.4610001
0.34633735 -0.17271559 1.4610002
0.35431385 -0.17366166 1.4625002
0.26495975 -0.16942139 1.4670001
0.28916281 -0.16942139 1.4670001
0.29553202 -0.16559984 1.4670004
0.30548742 -0.16546993 1.4658754
0.31473112 -0.16504176 1.4646925
0.3249096 -0.165512 1.463182
0.33560479 -0.16568062 1.4640002
0.34446138 -0.16470261 1.462286
0.35240963 -0.16699873 1.4625001
0.29935357 -0.15923063 1.4670001
0.30444896 -0.15923063 1.4670001
0.33756894 -0.15923063 1.4670001
0.34011662 -0.15923063 1.4670001
0.24557857 -0.23321436 1.473
0.25529939 -0.23457868 1.4729999
0.26572371 -0.2347066 1.473
0.27243873 -0.23406707 1.473
0.28267115 -0.23406707 1.473
0.23662518 -0.22566186 1.4730002
0.24557856 -0.2276718 1.473
0.25581101 -0.22511369 1.473
0.26732248 -0.22511367 1.4729999
0.27243873 -0.2276718 1.473
0.28267115 -0.22639275 1.473
0.22696121 -0.21388642 1.473
0.23236166 -0.21786571 1.473
0.24941573 -0.2161603 1.473
0.25662497 -0.21429986 1.4729999
0.26322955 -0.21513705 1.473
0.22406717 -0.20429997 1.4729999
0.24941573 -0.20464881 1.473
0.25615981 -0.2056953 1.4729999
0.22610849 -0.19427425 1.473
0.22662531 -0.18453275 1.4729999
0.23534612 -0.1824785 1.473
0.2462181 -0.18098629 1.473
0.25282654 -0.18119948 1.473
0.24685763 -0.17778866 1.473
0.25623736 -0.17523052 1.473
0.26695707 -0.17267242 1.4730002
0.27499685 -0.17267241 1.473
0.28318277 -0.17062595 1.473
0.27755493 -0.16755621 1.473
0.2852293 -0.16627716 1.473
0.29034549 -0.1649981 1.473
0.32530633 -0.16243999 1.473
0.33255431 -0.16243999 1.473
0.29546171 -0.15924235 1.473
0.30441511 -0.15860282 1.473
0.31336847 -0.15988187 1.473
0.33792633 -0.15630053 1.473
0.3415077 -0.15732376 1.473
0.23723885 -0.24461223 1.4860001
0.245391 -0.24447303 1.4851428
0.25515541 -0.24412286 1.4829999
0.26088208 -0.24289019 1.48
0.22645527 -0.23161663 1.4860001
0.23457265 -0.23418042 1.4836923
0.24203347 -0.23603617 1.48
0.25060099 -0.23646455 1.48
0.20774528 -0.22064872 1.4860001
0.21516477 -0.22226167 1.4860001
0.22408094 -0.22527441 1.4850769
0.23187478 -0.22526552 1.4800001
0.19742253 -0.21032597 1.4860001
0.20442726 -0.21382831 1.4860001
0.21476197 -0.21433707 1.484
0.2237968 -0.21718754 1.4800001
0.19613218 -0.2051646 1.4860001
0.20387426 -0.20387423 1.4860001
0.21508959 -0.20453222 1.4833
0.22232807 -0.20947674 1.48
0.19639027 -0.19484183 1.4860001
0.20387428 -0.19484186 1.4860001
0.21568133 -0.19521524 1.4842352
0.22284213 -0.19559731 1.48
0.1961322 -0.18839014 1.4860001
0.20387425 -0.18839012 1.4860001
0.21530917 -0.18565938 1.4848001
0.22284213 -0.18428811 1.48
0.23389427 -0.18120381 1.48
0.2157454 -0.17626092 1.4860001
0.2243475 -0.17535158 1.484875
0.23448691 -0.17521642 1.4837499
0.24437156 -0.17462705 1.4834284
0.25510049 -0.17328614 1.4837499
0.21806803 -0.16903499 1.4860001
0.22632623 -0.16800269 1.4860001
0.23484249 -0.16697043 1.4860001
0.24516524 -0.16516396 1.4860001
0.25677833 -0.16903499 1.4860001
0.26323003 -0.16903499 1.4860001
0.27581799 -0.16600393 1.4819999
0.28474885 -0.1639463 1.4800001
0.29172528 -0.16064167 1.48
0.3199982 -0.16064167 1.48
0.32558158 -0.16085875 1.482
0.33284953 -0.16064167 1.48
0.24645558 -0.15871224 1.4860001
0.28915501 -0.1580714 1.48
0.2949765 -0.15570895 1.4819999
0.30583864 -0.15576832 1.4825715
0.31420815 -0.15774664 1.483
0.32645687 -0.1574219 1.4860001
0.33360371 -0.15490936 1.4804999
0.23967737 -0.25004181 1.4920001
0.24592814 -0.25371364 1.4940001
0.25371253 -0.25392845 1.4920002
0.19133987 -0.24340515 1.4990001
0.20844701 -0.24414892 1.499
0.21737249 -0.24184318 1.4990001
0.22581233 -0.24517733 1.4974446
0.23279805 -0.24502371 1.493
0.19498444 -0.23403336 1.4990003
0.20513254 -0.23494281 1.4973849
0.21539517 -0.23486491 1.4943336
0.22477852 -0.23687036 1.4920002
0.23319961 -0.23967737 1.4920001
0.17745578 -0.22344677 1.4990001
0.18454199 -0.22483481 1.4966669
0.19433302 -0.2241307 1.4920002
0.20469742 -0.22542624 1.4920003
0.2140902 -0.2276935 1.4920001
0.17461208 -0.21529809 1.4975003
0.18396856 -0.21506189 1.4920003
0.19407392 -0.21532099 1.4920003
0.20081078 -0.21765296 1.4920001
0.1679105 -0.20435618 1.4990001
0.1739548 -0.20511799 1.4950628
0.18396857 -0.20469739 1.4920003
0.19277833 -0.2039201 1.4920002
0.16791049 -0.19914965 1.4990001
0.1740566 -0.19484472 1.4959378
0.18402138 -0.19438887 1.4924378
0.19217375 -0.19447695 1.4920001
0.17564458 -0.18557988 1.4983639
0.18423487 -0.18423717 1.4941878
0.19396289 -0.18341334 1.4920003
0.20469743 -0.18267302 1.4920002
0.2111752 -0.18008192 1.4920001
0.17658801 -0.17745578 1.4990001
0.1843977 -0.17588124 1.4983639
0.19490135 -0.17410789 1.4963753
0.20453 -0.17433091 1.4935004
0.21272989 -0.17386325 1.4920001
0.25263292 -0.17230859 1.4920001
0.19611251 -0.16704273 1.4990001
0.20613378 -0.16612567 1.4973849
0.21544024 -0.16546799 1.4946253
0.22449087 -0.16385302 1.4930772
0.23579071 -0.16280787 1.4920001
0.25498846 -0.1654775 1.4920002
0.26411527 -0.16493061 1.492467
0.27465236 -0.16265991 1.4964547
0.28546748 -0.16132967 1.4943334
0.29026386 -0.1601007 1.4990001
0.22725065 -0.15842524 1.4955001
0.23549543 -0.15574634 1.4947226
0.24472851 -0.15517771 1.4926366
0.25467536 -0.1559177 1.4963753
0.26522133 -0.15644276 1.4972502
0.27637979 -0.15749744 1.4990001
0.28396976 -0.15693896 1.4978334
0.29393467 -0.15374053 1.495
0.30502751 -0.15316197 1.493
0.31588492 -0.15420559 1.4955001
0.3242667 -0.15434866 1.4937502
0.3303661 -0.15157974 1.4920001
0.23819861 -0.14968765 1.4990001
0.24470675 -0.14968765 1.4990001
0.25511983 -0.14968765 1.4990001
0.26553285 -0.14968765 1.4990001
0.27724755 -0.14708439 1.4990001
0.28375572 -0.14968765 1.4990001
0.29467136 -0.14902718 1.4976001
0.30455405 -0.14850655 1.4976001
0.31485027 -0.14737362 1.4990001
0.32464206 -0.14933814 1.4955001
0.18961796 -0.24323407 1.506
0.19641805 -0.2440187 1.506
0.20269506 -0.24454178 1.506
0.21614578 -0.24640994 1.5059999
0.22187479 -0.24890082 1.506
0.17915627 -0.23146468 1.506
0.18700255 -0.23408011 1.5060002
0.20007963 -0.23931094 1.506
0.1686946 -0.221003 1.506
0.17457929 -0.22492614 1.506
0.16660227 -0.21394137 1.5060002
0.16346376 -0.20400275 1.5060002
0.16477147 -0.19484878 1.5060002
0.15300207 -0.18700254 1.506
0.16607918 -0.18628925 1.5060002
0.17235617 -0.18386403 1.506
0.16817153 -0.17549469 1.506
0.1750152 -0.17479724 1.5060002
0.18647945 -0.1718331 1.506
0.17523314 -0.1686946 1.506
0.18569481 -0.16738689 1.506
0.19452186 -0.16313684 1.506
0.20313096 -0.16172014 1.506
0.21446443 -0.16084833 1.506
0.19550265 -0.15757906 1.506
0.20321813 -0.15770982 1.506
0.21315673 -0.15823291 1.506
0.22571078 -0.15378669 1.5060002
0.23342624 -0.15104051 1.506
0.26284972 -0.15169436 1.506
0.27360201 -0.15300208 1.506
0.28181154 -0.15300208 1.506
0.30469644 -0.15038666 1.506
0.22492613 -0.14777124 1.506
0.23408009 -0.14777124 1.506
0.2471572 -0.14777124 1.506
0.25500345 -0.14777124 1.506
0.26441896 -0.14724815 1.506
0.27200371 -0.14777124 1.506
0.30600417 -0.14777124 1.506
0.31777355 -0.14777124 1.506
0.32169667 -0.14777124 1.506
0.21400596 -0.25076774 1.5120001
0.15527406 -0.24082053 1.5155001
0.16462557 -0.24100591 1.5166668
0.17598219 -0.24255666 1.5181251
0.18447191 -0.24354005 1.5145454
0.21400596 -0.24814188 1.5120001
0.14772782 -0.23082471 1.5190001
0.15564182 -0.23478173 1.5190003
0.16502929 -0.2349119 1.5184168
0.17492367 -0.23583794 1.5146924
0.18337117 -0.23676324 1.5120001
0.13849483 -0.22027273 1.5190001
0.14535362 -0.22396591 1.5190003
0.15516075 -0.22464824 1.5180002
0.16558644 -0.22560017 1.5125387
0.17286782 -0.22888573 1.5120001
0.12794285 -0.21235874 1.5190001
0.13489757 -0.21475691 1.5189999
0.14486291 -0.21466847 1.5166668
0.15534961 -0.21482785 1.5125002
0.16236444 -0.21619417 1.5120001
0.12583242 -0.20523617 1.5190001
0.13453785 -0.20576373 1.5190003
0.14446187 -0.20487593 1.5124378
0.15492456 -0.20481554 1.5120003
0.11607186 -0.19125476 1.5190001
0.12476691 -0.1941845 1.5178334
0.13453785 -0.19521178 1.5190003
0.14450251 -0.19442311 1.5128753
0.15492457 -0.19431217 1.5120003
0.16148916 -0.19037341 1.5120001
0.11739086 -0.18465976 1.5190001
0.12398584 -0.18465976 1.5190003
0.13449796 -0.18460545 1.5185628
0.14416827 -0.18478179 1.5125387
0.15504391 -0.18488303 1.512
0.16280209 -0.1838088 1.5120001
0.12464534 -0.17520694 1.5190001
0.13453785 -0.17410779 1.5190003
0.1446529 -0.17530486 1.5152944
0.15492457 -0.17593127 1.5120003
0.16387628 -0.17581193 1.512
0.17199253 -0.17199253 1.5120001
0.13673617 -0.16575412 1.5190001
0.14536943 -0.16551648 1.5180002
0.15528014 -0.16580629 1.5155003
0.16557038 -0.16556811 1.5133128
0.1759313 -0.16486526 1.5120002
0.18512173 -0.16280209 1.5120001
0.19037341 -0.16280209 1.5120001
0.14640883 -0.15827979 1.5190001
0.15564179 -0.1569608 1.5190001
0.16552296 -0.15665412 1.5183636
0.17461343 -0.15550391 1.5176878
0.18458076 -0.15508625 1.5162003
0.19387706 -0.15400623 1.5137501
0.2051736 -0.15337294 1.512
0.21550645 -0.15436187 1.5120002
0.22253995 -0.1542681 1.5120001
0.27833903 -0.15492457 1.5120001
0.2875295 -0.15361165 1.5120001
0.29214293 -0.15528014 1.5155001
0.18597877 -0.14904682 1.5190001
0.19564758 -0.14686772 1.5183001
0.20523161 -0.14652374 1.5177273
0.21489599 -0.147331 1.5130001
0.22188349 -0.14835997 1.5120001
0.24814188 -0.14835997 1.5120001
0.25426885 -0.14573413 1.5120001
0.26477221 -0.14573413 1.5120001
0.14963555 -0.24233013 1.5250001
0.13904189 -0.23173647 1.5250001
0.14669286 -0.23556192 1.5250001
0.13639346 -0.22412226 1.5250001
0.1416903 -0.22908805 1.5250001
0.12542145 -0.21471094 1.5250002
0.13109663 -0.21849439 1.5250001
0.11785454 -0.20392808 1.5250001
0.12116507 -0.20591439 1.5250001
0.11608893 -0.19554144 1.5250001
0.12182717 -0.19863126 1.5250001
0.10902649 -0.18847899 1.5250001
0.11432333 -0.18627198 1.5250001
0.11653034 -0.17479551 1.5250001
0.12248927 -0.17148498 1.5250001
0.12579979 -0.16685025 1.5250001
0.13403931 -0.1631719 1.5250001
0.1416903 -0.16022921 1.5250001
0.13639347 -0.15758079 1.5250001
0.14623044 -0.15417568 1.5250002
0.15493238 -0.15228397 1.5250001
0.16287763 -0.15228397 1.5250001
0.15427028 -0.14698714 1.5250001
0.16486393 -0.14897345 1.5250001
0.17400098 -0.14910588 1.5250001
0.1855363 -0.14581005 1.5250001
0.19465864 -0.14301451 1.5250001
0.12642013 -0.23359661 1.5389999
0.13546818 -0.23264611 1.5360001
0.14234067 -0.23546074 1.5320001
0.1182683 -0.22250478 1.539
0.12517479 -0.22519933 1.5373845
0.13302867 -0.22614874 1.5320001
0.10824557 -0.21248204 1.539
0.11519351 -0.21473497 1.5377272
0.12265243 -0.21630462 1.5320001
0.09621828 -0.20446385 1.539
0.10423648 -0.20580021 1.5389998
0.11371934 -0.20560597 1.5352306
0.088200092 -0.19377293 1.539
0.094881915 -0.19510929 1.5389999
0.10384034 -0.19514236 1.5371331
0.11340694 -0.19654985 1.5320001
0.086100087 -0.18403654 1.5389998
0.094881922 -0.18441838 1.5389999
0.1037755 -0.18434609 1.5361998
0.11174408 -0.18357956 1.5320001
0.08589182 -0.17506382 1.5389999
0.094881915 -0.1750638 1.539
0.10435644 -0.17516688 1.5363076
0.11174408 -0.17559785 1.5320001
0.087131001 -0.16651109 1.5389999
0.095149189 -0.16651109 1.5389999
0.10423648 -0.16570927 1.5389998
0.11459689 -0.16523515 1.5346248
0.12424878 -0.16335922 1.5319999
0.13169838 -0.1609647 1.5320001
0.10557284 -0.15902744 1.539
0.11492739 -0.15769108 1.539
0.12583688 -0.15538441 1.5369998
0.13533105 -0.15399458 1.5354999
0.14344229 -0.15188162 1.5343333
0.15386982 -0.15032239 1.5320001
0.16628584 -0.15032239 1.5320001
0.12695469 -0.14347702 1.5389999
0.13497286 -0.14432742 1.5389999
0.14391617 -0.14514881 1.537923
0.15424177 -0.14448227 1.5327778
0.16459276 -0.14475939 1.5319999
0.17624336 -0.14449869 1.5337499
0.18257995 -0.14206384 1.5348001
0.19156128 -0.14234067 1.5320001
0.12829104 -0.1376456 1.539
0.11947746 -0.24029736 1.5460001
0.12350479 -0.24029736 1.5460001
0.10873792 -0.23492759 1.5460001
0.11649425 -0.23433095 1.5460002
0.12216235 -0.23627004 1.5460001
0.13558678 -0.23761247 1.5460001
0.10739547 -0.22150315 1.5460001
0.11433142 -0.22620171 1.5460001
0.089048743 -0.21165855 1.5460001
0.09585046 -0.21425398 1.5460002
0.10434446 -0.21637748 1.5460002
0.1114228 -0.21881828 1.5460001
0.077056244 -0.20109801 1.5460001
0.085647896 -0.20431988 1.546
0.092628591 -0.20539384 1.5460001
0.064884759 -0.19196941 1.5460001
0.075542942 -0.19441022 1.5460002
0.084190369 -0.19542138 1.5460002
0.064526789 -0.18498872 1.546
0.075176828 -0.1852572 1.546
0.081889048 -0.18794207 1.5460001
0.065012619 -0.1749012 1.5460001
0.075176828 -0.17451763 1.546
0.081889048 -0.17317519 1.5460001
0.067122169 -0.16646297 1.5460001
0.07517682 -0.16512054 1.5460001
0.083499983 -0.16404659 1.5460001
0.093971036 -0.16243565 1.5460001
0.076519273 -0.15975076 1.5460001
0.086363852 -0.15796083 1.5460002
0.095313482 -0.15706587 1.5460002
0.10440078 -0.15479404 1.5460001
0.11545012 -0.15303855 1.5460002
0.12350479 -0.1516961 1.5460001
0.10605302 -0.14793725 1.5460001
0.11602546 -0.14536746 1.5460001
0.1232363 -0.14686331 1.5460001
0.10720747 -0.23127146 1.5530001
0.1119273 -0.2359913 1.5530001
0.094589166 -0.22366197 1.5530002
0.10503486 -0.2255028 1.5530002
0.079562783 -0.2117179 1.5530001
0.085294001 -0.2150892 1.5530002
0.091699481 -0.21846052 1.5530001
0.067875586 -0.20182876 1.5530001
0.0749778 -0.20605412 1.5530002
0.055963654 -0.19081582 1.5530001
0.065692268 -0.19515036 1.5530002
0.071471654 -0.1982327 1.5530001
0.055626523 -0.18441035 1.5530002
0.055828799 -0.17584723 1.5530002
0.060683478 -0.17261077 1.5530001
0.057087421 -0.1676662 1.5530001
0.064116068 -0.16390668 1.5530002
0.071471654 -0.16047408 1.5530001
0.06607756 -0.15777704 1.5530001
0.076326333 -0.15723762 1.5530001
0.085631132 -0.15440573 1.5530001
0.094396524 -0.15238295 1.5530001
0.096044704 -0.14549051 1.5530002
0.10457173 -0.14429183 1.5530002
0.1119273 -0.14294329 1.5530001
0.10653322 -0.13889773 1.5530001
-0.046263065 -0.33064485 1.567
-0.036738317 -0.33064485 1.567
-0.046263065 -0.32792348 1.567
-0.036738317 -0.32792348 1.567
-0.04218103 -0.31159535 1.567
-0.038098995 -0.31159535 1.567
-0.0503451 -0.30207062 1.567
-0.043995265 -0.30252418 1.567
-0.037826858 -0.30615264 1.567
-0.0503451 -0.29662788 1.567
-0.045809507 -0.29617432 1.567
0.085463397 -0.23198307 1.5623335
0.094821997 -0.23163661 1.5600001
0.10430419 -0.23344274 1.5600001
0.065312564 -0.22179058 1.567
0.074837312 -0.22179058 1.567
0.084468 -0.22522511 1.5632308
0.094551086 -0.22838557 1.5600001
0.101595 -0.2289274 1.5600001
0.038098995 -0.21498719 1.567
0.066128969 -0.21498719 1.5670002
0.075547844 -0.21580562 1.5612729
0.082630605 -0.21809061 1.5600001
0.047623742 -0.2013804 1.567
0.054408457 -0.20403706 1.5664999
0.064702205 -0.20619145 1.5612729
0.071793802 -0.20996301 1.5600001
0.038098995 -0.19185565 1.567
0.04485511 -0.19438522 1.5654446
0.053757455 -0.19531086 1.560778
0.06186007 -0.19822313 1.5600001
0.014060344 -0.18187733 1.567
0.028574245 -0.18097022 1.567
0.035649776 -0.18478012 1.5669999
0.044798043 -0.18464096 1.5635
0.050662041 -0.18503836 1.5600001
0.0058962726 -0.17303294 1.567
0.013606784 -0.17416684 1.5670002
0.028574245 -0.17462039 1.567
0.035377637 -0.17416683 1.5669999
0.044506256 -0.17451279 1.5628002
0.051203884 -0.17420158 1.5600001
0.0058138077 -0.16488947 1.5670002
0.013606784 -0.16464208 1.567
0.028574245 -0.16736344 1.567
0.035748731 -0.16488947 1.5670002
0.045055285 -0.16529071 1.5638183
0.053471901 -0.16458744 1.5605385
0.060957003 -0.16119741 1.5600001
0.0095247487 -0.15919937 1.567
0.013606784 -0.15919937 1.567
0.036738317 -0.15919937 1.567
0.045242555 -0.1568182 1.5670002
0.054797228 -0.15564968 1.5664999
0.065084487 -0.15451737 1.5637333
0.075110488 -0.15320475 1.5614002
0.084044971 -0.15137611 1.5611668
0.090758204 -0.1503606 1.5600001
0.058509171 -0.14695325 1.567
0.065683655 -0.14583997 1.5670002
0.074497148 -0.14593275 1.5670002
0.084215418 -0.14670785 1.5643752
0.093015872 -0.14584528 1.5600001
-0.042369459 -0.35125646 1.5740001
-0.039635945 -0.35125646 1.5740001
-0.05057 -0.3444227 1.5740001
-0.045102973 -0.34454691 1.5740002
-0.038464438 -0.34383696 1.5740002
-0.052210104 -0.33376199 1.5740001
-0.044712473 -0.33563638 1.5740002
-0.0378136 -0.33485541 1.5740002
-0.065231569 -0.32367283 1.5740002
-0.05330351 -0.32528815 1.5740002
-0.044829622 -0.32446808 1.5740002
-0.036902431 -0.32491535 1.5740002
-0.065213822 -0.3149398 1.5740001
-0.054670271 -0.314354 1.574
-0.045351475 -0.31447828 1.5740002
-0.034624506 -0.31526521 1.5740002
-0.027790718 -0.31344286 1.5740002
-0.06218743 -0.30547011 1.5740001
-0.055490322 -0.30506009 1.5740002
-0.045558557 -0.30524233 1.5740002
-0.035193983 -0.30478674 1.5740002
-0.025968377 -0.30615351 1.5740001
-0.061504051 -0.29931971 1.5740001
-0.054670274 -0.29603952 1.5740002
-0.045102973 -0.2948778 1.5740002
-0.037813604 -0.29537135 1.5740002
-0.05057 -0.2870189 1.5740001
-0.04674308 -0.28619885 1.5740001
0.080638647 -0.23098189 1.5740001
0.056037024 -0.22004783 1.574
0.064237565 -0.2214146 1.5740001
0.07517162 -0.2246037 1.574
0.080638647 -0.22824837 1.5740001
0.02870189 -0.2145808 1.5740001
0.035383813 -0.2145808 1.5740002
0.045102973 -0.21294069 1.5740001
0.055043019 -0.2143323 1.5740002
0.061504051 -0.21594757 1.5740001
0.037206158 -0.20395048 1.5740002
0.044556271 -0.20556021 1.5740002
0.05057 -0.20911378 1.5740001
0.015034324 -0.19271269 1.5740001
0.027335132 -0.19544621 1.5740002
0.034988973 -0.19599292 1.5740002
0.0062263366 -0.18390471 1.5740002
0.015034324 -0.18656228 1.5740002
0.024328267 -0.18615225 1.574
0.031435404 -0.18997918 1.5740001
-0.012984189 -0.1735781 1.5740001
-0.0053759096 -0.17467152 1.574
0.0041002701 -0.17836176 1.5740001
0.017767837 -0.17494485 1.5740001
0.023655403 -0.17483972 1.5740001
-0.005467027 -0.16537757 1.5740002
0.0013667567 -0.16264404 1.5740001
0.017767837 -0.16537756 1.574
0.024228869 -0.16512905 1.5740002
0.031435404 -0.16264404 1.5740001
-0.0027335135 -0.15991053 1.5740001
0.005467027 -0.15649365 1.5740002
0.014692635 -0.15546855 1.5740002
0.025471373 -0.15717703 1.5740002
0.035535675 -0.15581027 1.5740002
0.044419594 -0.15239336 1.5740001
0.051936753 -0.15170999 1.5740001
-0.0013667567 -0.14350945 1.5740001
0.039635945 -0.14897648 1.5740001
0.045649674 -0.14788306 1.5740001
0.053850215 -0.1459696 1.5740002
0.061504051 -0.14350945 1.5740001
-0.082786903 -0.37116128 1.5890001
-0.074508205 -0.37116128 1.5890001
-0.10279373 -0.36288261 1.5890001
-0.095204942 -0.36012304 1.5890001
-0.083476797 -0.36495227 1.5890001
-0.074417911 -0.36380389 1.5870004
-0.06482137 -0.36411011 1.5883335
-0.056571051 -0.36219272 1.589
-0.047372509 -0.36196277 1.5890001
-0.033114761 -0.36012304 1.5890001
-0.10269518 -0.35460386 1.589
-0.09559916 -0.35539237 1.589
-0.088765956 -0.35644361 1.5890001
-0.072208576 -0.35552374 1.5890001
-0.064743996 -0.35401189 1.5863334
-0.055440631 -0.35404456 1.5853637
-0.04667639 -0.35419142 1.5810001
-0.035379928 -0.35421661 1.5839093
-0.028975416 -0.35598367 1.5890001
-0.11341806 -0.34411758 1.5890001
-0.10425155 -0.34528559 1.5853637
-0.095106296 -0.34542602 1.5874001
-0.089685813 -0.34770501 1.5890001
-0.07092078 -0.34522134 1.5890001
-0.064797647 -0.34465364 1.5876666
-0.056620546 -0.34437701 1.5826002
-0.045303557 -0.3445816 1.5810001
-0.032868031 -0.34503859 1.5867144
-0.015177599 -0.34080607 1.5890001
-0.11220169 -0.33659953 1.5874002
-0.10450435 -0.33549756 1.5834999
-0.095139816 -0.33465445 1.5834002
-0.084994555 -0.33473504 1.589
-0.074449159 -0.3350068 1.5876666
-0.06452325 -0.33359894 1.5810002
-0.056678478 -0.33595234 1.5810002
-0.032705426 -0.33558673 1.5826
-0.028055564 -0.33344725 1.5890001
-0.013797817 -0.33528695 1.5890001
-0.1030753 -0.32714567 1.5880001
-0.09508279 -0.32521456 1.587
-0.08582259 -0.32575041 1.5867141
-0.075075574 -0.32613042 1.5834001
-0.059031907 -0.32536194 1.581
-0.031575207 -0.32536188 1.581
-0.024421006 -0.32598463 1.5878574
-0.015160811 -0.32521805 1.5870003
-0.0096098455 -0.32810757 1.5810001
-0.10072406 -0.31872958 1.5890001
-0.094416492 -0.31636423 1.589
-0.085147217 -0.31499863 1.5872223
-0.075354628 -0.3149952 1.585
-0.067268915 -0.31163356 1.5810001
-0.022787482 -0.31556654 1.5854446
-0.015522544 -0.31631497 1.589
-0.0096584717 -0.31872958 1.5890001
-0.084166683 -0.30493176 1.5890001
-0.07416255 -0.30523604 1.5883847
-0.066092201 -0.30418104 1.5810002
-0.032490429 -0.30156609 1.581
-0.026119296 -0.30468079 1.5834001
-0.082984015 -0.29468197 1.589
-0.07450822 -0.29527333 1.5890002
-0.06452325 -0.29515955 1.5810002
-0.056972653 -0.29310027 1.5810001
-0.042557888 -0.29241386 1.5810001
-0.032517057 -0.29403099 1.5823334
-0.026191538 -0.2950232 1.5876669
-0.081959039 -0.28506291 1.5890001
-0.074508213 -0.28423503 1.5890002
-0.064699225 -0.28493634 1.5852666
-0.055740718 -0.28451547 1.5838236
-0.043810751 -0.28282499 1.5849999
-0.035541747 -0.28509307 1.5852354
-0.02787159 -0.28616673 1.5890001
-0.081407122 -0.27733612 1.5890001
-0.074508213 -0.27457657 1.5890001
-0.064849742 -0.27457654 1.589
-0.054853089 -0.27489263 1.5883847
-0.044153016 -0.27457657 1.5890001
-0.034839489 -0.27423161 1.589
-0.072852477 -0.26574597 1.589
-0.064849742 -0.26491809 1.5890001
-0.055191264 -0.26491809 1.5890002
-0.044153016 -0.26491806 1.5890002
-0.034494542 -0.26491806 1.5890001
-0.072783485 -0.25491467 1.589
-0.064849742 -0.2552596 1.589
-0.055191267 -0.2552596 1.5890001
-0.044153009 -0.2552596 1.5890001
-0.036150284 -0.25581154 1.5890001
-0.073128425 -0.24560113 1.5890001
-0.064849742 -0.24560116 1.5890001
-0.055191264 -0.24560116 1.5890002
-0.04415302 -0.24560116 1.5890002
-0.036334254 -0.24468128 1.5890001
-0.072438538 -0.23801234 1.5890001
-0.064598866 -0.23493923 1.589
-0.055191264 -0.23456289 1.5890002
-0.04415302 -0.2345629 1.5890002
-0.03474541 -0.23418659 1.589
-0.063469961 -0.22628421 1.5890001
-0.054731339 -0.22582428 1.589
-0.044153016 -0.22490442 1.5890001
-0.034494545 -0.2249044 1.589
0.048292361 -0.22214486 1.5890001
-0.051603831 -0.21441808 1.5890001
-0.044245005 -0.21515396 1.5890002
-0.036071438 -0.21504882 1.589
0.015152127 -0.21075232 1.5863334
0.024817837 -0.21235177 1.5880001
0.033634458 -0.21073017 1.5810001
0.045303553 -0.21759437 1.5810001
0.050794896 -0.21828078 1.5810001
-0.052155752 -0.2061394 1.5890001
-0.043877058 -0.20448364 1.5890002
-0.035529375 -0.20351781 1.589
-0.026215851 -0.20006835 1.5890001
0.0080815786 -0.20282792 1.589
0.014610404 -0.20455122 1.5874
0.024746925 -0.20489627 1.5836668
0.032948039 -0.20523885 1.5810001
-0.044153016 -0.1945492 1.5890001
-0.034494538 -0.1945492 1.589
-0.024836071 -0.19454922 1.5890001
-0.015170652 -0.19444194 1.588111
-0.0055127591 -0.19430782 1.587
0.0055029183 -0.1940641 1.585
0.015584268 -0.1948161 1.5836668
0.021965362 -0.19631541 1.5810002
-0.043561678 -0.18528499 1.5890001
-0.034494542 -0.18489075 1.5890001
-0.025127228 -0.1856328 1.5871538
-0.01511971 -0.18554421 1.582778
-0.0054913405 -0.18533273 1.5810002
0.0032032814 -0.18716317 1.581
-0.041853379 -0.17615213 1.5890001
-0.034494542 -0.17523229 1.589
-0.024483239 -0.17574145 1.5836667
-0.016130812 -0.1764093 1.5810002
-0.0068641752 -0.17984138 1.5810001
-0.040013671 -0.16143446 1.5890001
-0.034494542 -0.16584975 1.589
-0.024822179 -0.16546699 1.5880003
-0.01513013 -0.16501461 1.5836668
-0.0082370099 -0.1606217 1.5810001
-0.023916217 -0.15775503 1.5890001
-0.014619434 -0.15500899 1.5882
-0.0057784109 -0.15428635 1.5836666
0.0041185049 -0.15238468 1.581
0.017876958 -0.15263708 1.5836668
0.023039272 -0.15232544 1.5840001
0.033674404 -0.15188757 1.5830002
-0.013337891 -0.14579694 1.5890001
-0.0055078389 -0.14648394 1.5840001
0.0057691489 -0.14584279 1.5815334
0.014211433 -0.14591463 1.5836668
0.028249055 -0.14744735 1.5870001
0.035778806 -0.14726326 1.5850002
0.042557888 -0.14689335 1.5810001
0.008261323 -0.13900715 1.585
0.013797818 -0.13935795 1.5890001
-0.064581081 -0.37390503 1.5960001
-0.057374608 -0.37168765 1.5960001
-0.084537461 -0.36309534 1.5960001
-0.053124636 -0.36632898 1.5960001
-0.11502638 -0.35062256 1.5960001
-0.10855903 -0.3552421 1.5960001
-0.092852622 -0.3533943 1.5960001
-0.084285483 -0.35440221 1.596
-0.07683824 -0.35370228 1.596
-0.027717201 -0.35200846 1.5960001
-0.11779811 -0.34507915 1.5960001
-0.091004811 -0.34323132 1.5960001
-0.084537476 -0.34507912 1.596
-0.076568767 -0.3447327 1.596
-0.026677804 -0.34542558 1.596
-0.01801618 -0.34230742 1.5960001
-0.11548833 -0.33491614 1.5960001
-0.090080902 -0.33953571 1.5960001
-0.087309182 -0.33953571 1.5960001
-0.024351539 -0.33676395 1.596
-0.01801618 -0.33676398 1.5960001
-0.11225466 -0.32706296 1.5960001
-0.10696321 -0.32391331 1.596
-0.10424747 -0.31520617 1.596
-0.096733034 -0.31348154 1.5960001
-0.01663032 -0.31181851 1.5960001
-0.10255365 -0.3048892 1.596
-0.094238468 -0.3048892 1.5960002
-0.084537461 -0.3048892 1.596
-0.0207879 -0.3048892 1.5960001
-0.015521633 -0.30572072 1.596
-0.0097010201 -0.3048892 1.5960001
-0.094238482 -0.29518819 1.5960001
-0.087309182 -0.29518819 1.5960001
-0.0207879 -0.29518819 1.5960001
-0.015244461 -0.29449525 1.5960001
-0.0097010201 -0.29241648 1.5960001
-0.092852622 -0.28548717 1.5960001
-0.086121298 -0.28489324 1.596
-0.023559619 -0.28460526 1.596
-0.015244461 -0.28964475 1.5960001
-0.0097010201 -0.28964475 1.5960001
-0.090635255 -0.27523181 1.5960001
-0.08478944 -0.27402237 1.596
-0.03187478 -0.27855787 1.5960001
-0.024945481 -0.27440029 1.5960002
-0.01801618 -0.27486226 1.5960001
-0.084190995 -0.26504573 1.596
-0.077608168 -0.26469925 1.5960001
-0.024945481 -0.26469928 1.5960001
-0.01801618 -0.26608515 1.5960001
-0.083151609 -0.25499827 1.596
-0.078439675 -0.25582978 1.5960001
-0.032798685 -0.25407436 1.5960001
-0.026331341 -0.25499824 1.5960001
-0.083151601 -0.24529721 1.5960001
-0.078994021 -0.24529721 1.5960001
-0.03256771 -0.24599016 1.5960001
-0.027717201 -0.24529724 1.5960001
-0.082458675 -0.23767498 1.5960001
-0.075529367 -0.23444133 1.5960001
-0.06790714 -0.23143862 1.5960001
-0.03187478 -0.23975378 1.5960001
-0.026331341 -0.23559619 1.5960001
-0.074242495 -0.22490528 1.5960001
-0.065828353 -0.22312346 1.596
-0.056820262 -0.22173761 1.5960001
-0.03187478 -0.22035174 1.5960001
-0.025222652 -0.22423215 1.5960002
-0.01801618 -0.22312346 1.5960001
-0.072526671 -0.2157322 1.5960001
-0.065135419 -0.2148083 1.596
-0.057166729 -0.21515478 1.596
-0.042961661 -0.21758002 1.5960001
-0.03256771 -0.21550122 1.5960001
-0.024945481 -0.21480833 1.5960001
-0.01663032 -0.21342243 1.5960001
0.0076222299 -0.2127295 1.5960001
-0.07067886 -0.20926486 1.5960001
-0.064096026 -0.20580021 1.596
-0.056820262 -0.20422539 1.596
-0.048505101 -0.2009497 1.5960001
-0.03256771 -0.20649314 1.5960001
-0.024625666 -0.2060667 1.5960001
-0.015244459 -0.20510729 1.5960001
-0.005863254 -0.20414783 1.5960001
0.0035416421 -0.20618516 1.596
0.01801618 -0.20233557 1.5960001
-0.063056633 -0.19471335 1.5960001
-0.055434402 -0.1954063 1.5960001
-0.062363703 -0.18847698 1.5960001
-0.055434406 -0.18570524 1.5960002
-0.048505101 -0.18293354 1.5960001
-0.053124636 -0.17508033 1.596
-0.045733385 -0.17323251 1.596
-0.052385509 -0.164363 1.5960001
-0.044725485 -0.16516933 1.596
-0.0346465 -0.16491735 1.5960001
-0.051276822 -0.15521632 1.5960001
-0.044347525 -0.15521634 1.5960002
-0.034394529 -0.15559427 1.596
-0.025499824 -0.15327613 1.596
-0.01801618 -0.1524446 1.5960001
-0.044347521 -0.14828703 1.5960001
-0.015244461 -0.14828703 1.5960001
0.01801618 -0.14412946 1.5960001
0.023867587 -0.14489937 1.596
0.0346465 -0.14459141 1.5960001
0.01801618 -0.13997187 1.5960001
0.023559621 -0.13997187 1.5960001
-0.11274701 -0.36051205 1.603
-0.10857119 -0.36468786 1.603
-0.12109864 -0.35216039 1.603
-0.11553089 -0.35633621 1.603
-0.1220266 -0.34520075 1.603
-0.021992628 -0.343252 1.603
-0.12109864 -0.33824101 1.603
-0.11831477 -0.33545715 1.603
-0.11460293 -0.32478562 1.603
-0.11413895 -0.31736195 1.603
-0.10884957 -0.31262937 1.603
-0.1082928 -0.30539128 1.603
-0.013919383 -0.30205062 1.603
-0.0097435685 -0.30205062 1.603
-0.10280459 -0.29568747 1.6029999
-0.098827623 -0.29091513 1.603
-0.015311321 -0.29703966 1.603
-0.0097435685 -0.29787481 1.603
-0.1016115 -0.28813124 1.603
-0.098827623 -0.28534734 1.603
-0.015311322 -0.28534734 1.6029999
-0.095347784 -0.2756038 1.6029999
-0.014383364 -0.27544916 1.6029999
-0.0097435685 -0.27142799 1.603
-0.091867931 -0.26446828 1.6029999
-0.087692119 -0.26168442 1.603
-0.020879075 -0.26029247 1.603
-0.014754546 -0.26391155 1.6029999
-0.0069596916 -0.26632419 1.603
-0.1016115 -0.25333279 1.603
-0.093569189 -0.25441539 1.6029999
-0.087692119 -0.25472474 1.603
-0.020879075 -0.25472474 1.603
-0.015311322 -0.25472471 1.6029999
-0.1016115 -0.24915697 1.603
-0.092464469 -0.2463731 1.6029999
-0.087692119 -0.24498114 1.603
-0.022072166 -0.24557769 1.6029999
-0.084908247 -0.23523757 1.603
-0.020879075 -0.2352376 1.603
-0.015311321 -0.23558559 1.6029999
-0.0097435685 -0.23523758 1.603
0.0027838768 -0.2324537 1.603
-0.082820334 -0.22758192 1.603
-0.079340488 -0.22271013 1.603
-0.020879075 -0.22966984 1.603
-0.014963337 -0.22410208 1.6029999
-0.0069596916 -0.22410208 1.603
0.0033804218 -0.22370438 1.6029999
-0.082124367 -0.21714237 1.603
-0.076904595 -0.21366255 1.6029999
-0.014197771 -0.21686402 1.603
-0.0064029163 -0.21408013 1.6029999
0.0037781184 -0.21654584 1.6029999
-0.07307677 -0.20670284 1.603
-0.06750901 -0.20461494 1.603
-0.067011893 -0.19507022 1.6029999
-0.065421104 -0.18512781 1.6029999
-0.064029165 -0.17956005 1.603
-0.058660261 -0.17478769 1.6029999
-0.056141514 -0.16424873 1.603
-0.062637225 -0.15172128 1.603
-0.056141514 -0.15404119 1.603
-0.037582338 -0.15172128 1.603
-0.034798458 -0.1489374 1.603
-0.024126932 -0.14800943 1.603
-0.018095199 -0.14754546 1.603
0.020879075 -0.1378019 1.603
-0.12223181 -0.37512523 1.618
-0.11580912 -0.37392095 1.618
-0.10818218 -0.37512523 1.618
-0.13066159 -0.36107558 1.618
-0.12391777 -0.36276156 1.618
-0.11677402 -0.36645478 1.615375
-0.13347152 -0.35545576 1.618
-0.12545642 -0.35476044 1.613
-0.1419013 -0.34140611 1.618
-0.13500592 -0.34550241 1.6161333
-0.12659909 -0.34482515 1.6110001
-0.14283794 -0.33531788 1.618
-0.13456205 -0.33462143 1.6171765
-0.12510534 -0.33515999 1.6127501
-0.11890523 -0.33293465 1.6110001
-0.1419013 -0.32454655 1.618
-0.13487649 -0.32454655 1.618
-0.12444646 -0.3246704 1.6135455
-0.11890523 -0.32454133 1.6110001
-0.13455226 -0.31568447 1.618
-0.12486446 -0.31425491 1.6156667
-0.11687148 -0.31351817 1.6118751
-0.12223181 -0.30628201 1.618
-0.11526611 -0.30481058 1.6142309
-0.10771415 -0.30076027 1.6110001
-0.11376202 -0.29493442 1.6174167
-0.10734181 -0.2939918 1.6138
-0.11239707 -0.28661254 1.618
-0.10514796 -0.28514892 1.6145
-0.0098028332 -0.28568101 1.6127501
-0.10396728 -0.2753728 1.618
-0.099320836 -0.27558038 1.6110001
-0.0069974647 -0.27531365 1.6121668
-0.10381938 -0.26515716 1.6156667
-0.097921953 -0.26578814 1.6110001
-0.0069944249 -0.26392296 1.6110001
-0.10455884 -0.25752965 1.61625
-0.098621391 -0.25529653 1.6110001
-0.015387736 -0.25040042 1.6110001
-0.0065677394 -0.25444168 1.612077
-0.10234047 -0.24673563 1.6145
-0.096412264 -0.24382539 1.6138
-0.015387735 -0.24480489 1.6110001
-0.0056066844 -0.24533774 1.6145
0.0021074452 -0.2423562 1.618
-0.092930667 -0.2352974 1.615375
-0.088129759 -0.2336138 1.6110001
-0.015387735 -0.23151548 1.6110001
-0.0046270811 -0.23468988 1.6110001
0.0027977701 -0.2336138 1.6110001
-0.092727572 -0.22479415 1.618
-0.086131342 -0.22482082 1.6110001
-0.0053157629 -0.22522049 1.6110001
-0.092446581 -0.21552138 1.618
-0.085966907 -0.21505232 1.6124001
-0.079736449 -0.21123163 1.6110001
-0.0030775471 -0.21682718 1.6110001
-0.091322616 -0.20933954 1.618
-0.085214369 -0.20487723 1.6169231
-0.075951703 -0.20317282 1.6116364
-0.091322616 -0.19809984 1.618
-0.084297806 -0.19528989 1.618
-0.074733898 -0.19480805 1.6117001
-0.081487879 -0.18686013 1.618
-0.074279189 -0.18498559 1.6139168
-0.068545364 -0.18185505 1.6110001
-0.080082916 -0.17843035 1.618
-0.073838629 -0.1753082 1.618
-0.066109151 -0.174114 1.6135455
-0.071653135 -0.16719064 1.618
-0.063324809 -0.16519088 1.6145
-0.062387146 -0.15771495 1.6145
-0.057354286 -0.15527624 1.6110001
-0.04196655 -0.14688294 1.6110001
-0.034972128 -0.14688294 1.6110001
-0.027977701 -0.14688294 1.6110001
-0.14401484 -0.37839189 1.626
-0.13372804 -0.37415621 1.6260002
-0.12601298 -0.3738032 1.6260002
-0.14316769 -0.36342564 1.626
-0.13624932 -0.3654494 1.626
-0.1270719 -0.3670966 1.626
-0.15107438 -0.35297751 1.626
-0.14542674 -0.35438943 1.6260002
-0.13977909 -0.35580134 1.626
-0.15333346 -0.34394127 1.6260002
-0.14605425 -0.34560418 1.6260002
-0.1530914 -0.33502606 1.6260002
-0.14712103 -0.3340579 1.626
-0.15248629 -0.32473934 1.6260002
-0.14636803 -0.32426867 1.6260002
-0.15248629 -0.31485593 1.626
-0.14542675 -0.31485596 1.6260002
-0.13695528 -0.31203213 1.626
-0.15107438 -0.3092083 1.626
-0.14542672 -0.30807877 1.626
-0.13554336 -0.30779639 1.6260002
-0.12537761 -0.30440784 1.6260002
-0.12071831 -0.29579514 1.626
-0.0070595504 -0.29226539 1.626
-0.12095363 -0.2847352 1.626
-0.11507066 -0.28379393 1.6260002
-0.10871708 -0.2809701 1.626
-0.0070595504 -0.28944156 1.626
-0.12095362 -0.27720499 1.626
-0.11401173 -0.27567542 1.6260002
-0.10871708 -0.27532244 1.626
-0.11154089 -0.26967481 1.626
-0.10871708 -0.26826292 1.626
-0.1040107 -0.24331915 1.626
-0.10185921 -0.23578897 1.6260002
-0.097421795 -0.23296516 1.626
-0.10024562 -0.2244937 1.626
-0.097421795 -0.2244937 1.626
-0.10024561 -0.21884605 1.626
-0.09600988 -0.21461032 1.626
-0.093186058 -0.20472695 1.626
-0.093468443 -0.19569072 1.626
-0.088009059 -0.19154914 1.626
-0.085185237 -0.18448959 1.626
-0.082988933 -0.17523372 1.6260002
-0.076713778 -0.17178239 1.626
-0.080478869 -0.1680173 1.626
-0.074360602 -0.16519348 1.626
-0.069183595 -0.16378155 1.626
-0.073419318 -0.15954584 1.626
-0.069183595 -0.15954584 1.626
-0.040945392 -0.14542674 1.626
-0.036709659 -0.14542674 1.626
-0.14235862 -0.37457821 1.6339999
-0.13621025 -0.37599704 1.6340001
-0.15181766 -0.36322731 1.6340001
-0.14784488 -0.36521372 1.6340001
-0.16222262 -0.35234943 1.6339999
-0.15546617 -0.35532227 1.6339999
-0.16316852 -0.34478223 1.6339999
-0.1574931 -0.34761989 1.6340001
-0.1631685 -0.33485019 1.6340002
-0.1574931 -0.33343133 1.6340002
-0.16174966 -0.32491818 1.6339999
-0.1574931 -0.32491818 1.6340002
-0.16146588 -0.31697258 1.6340001
-0.15692556 -0.3141349 1.6340001
-0.15394595 -0.30718249 1.6340001
-0.14500716 -0.30562171 1.6340001
-0.13422385 -0.30391914 1.6340001
-0.12911595 -0.30221647 1.6340001
-0.12556882 -0.29512221 1.6339999
-0.12485939 -0.28660905 1.6340001
-0.10357654 -0.23269249 1.6340001
-0.092225686 -0.19154565 1.6340001
-0.092225686 -0.18870795 1.6340001
-0.089387976 -0.18303251 1.6340002
-0.087496161 -0.17451937 1.6340002
-0.083712548 -0.16884395 1.6340001
-0.07803712 -0.16458738 1.6340001
-0.15452723 -0.37375832 1.6455715
-0.14795677 -0.37537155 1.6436666
-0.17153944 -0.36455709 1.6489999
-0.16345015 -0.364544 1.6463333
-0.15634498 -0.36556399 1.6458
-0.18184897 -0.35224289 1.649
-0.17507347 -0.35475689 1.6481112
-0.16760971 -0.35607624 1.6442001
-0.18328087 -0.3450835 1.649
-0.17549887 -0.34498382 1.6458
-0.16956727 -0.3448343 1.641
-0.19044027 -0.33506033 1.649
-0.18471275 -0.33506033 1.649
-0.17615257 -0.33500564 1.6468182
-0.16956727 -0.33485973 1.6410002
-0.19044025 -0.32503715 1.649
-0.18471275 -0.32503715 1.649
-0.17549887 -0.32497638 1.6458
-0.16814233 -0.32488519 1.6409999
-0.19044027 -0.31501397 1.649
-0.18471275 -0.31501397 1.649
-0.17561623 -0.31456438 1.6483847
-0.16651368 -0.31392145 1.6417999
-0.19187215 -0.3049908 1.649
-0.18471275 -0.30642268 1.649
-0.17383043 -0.30728179 1.6489999
-0.16385677 -0.30597186 1.6466001
-0.15586519 -0.30352134 1.643
-0.14560647 -0.30263588 1.6439999
-0.13624975 -0.3017402 1.6429999
-0.16180263 -0.29926327 1.649
-0.15402956 -0.29680863 1.649
-0.1440473 -0.29811776 1.6489999
-0.1357097 -0.29522616 1.6482728
-0.12966909 -0.29496157 1.6410002
-0.15225674 -0.28589907 1.649
-0.13459688 -0.28637636 1.649
-0.12824416 -0.28569949 1.641
-0.092620768 -0.18381663 1.6410002
-0.092620775 -0.17811687 1.641
-0.1525158 -0.38128951 1.6570001
-0.16402644 -0.37265655 1.6570001
-0.15970995 -0.37265655 1.6570001
-0.18369043 -0.36210513 1.6570001
-0.1774555 -0.36450318 1.6569999
-0.16594487 -0.36690125 1.6569999
-0.15970995 -0.3697789 1.6570001
-0.19472142 -0.35347214 1.6569999
-0.18643105 -0.35580173 1.6569998
-0.17985354 -0.35826826 1.6570001
-0.22205918 -0.34483919 1.6570001
-0.21380989 -0.34474328 1.6569998
-0.20511298 -0.34419972 1.6569998
-0.1959684 -0.34560663 1.6569997
-0.18848652 -0.34675765 1.6570001
-0.21366602 -0.33668584 1.6570001
-0.20575245 -0.33524701 1.6569998
-0.1971195 -0.33524704 1.6569998
-0.20549084 -0.32504439 1.6569997
-0.19711949 -0.3251752 1.6569997
-0.22014074 -0.31798106 1.6570001
-0.21438542 -0.31798106 1.6570001
-0.20460138 -0.31625447 1.6569999
-0.1971195 -0.31510341 1.6569998
-0.20451917 -0.30523714 1.6569998
-0.19663988 -0.30455205 1.6569997
-0.18560886 -0.30215394 1.6569999
-0.17553706 -0.3035928 1.6569998
-0.16738372 -0.30167434 1.6570001
-0.19568066 -0.29783747 1.6570001
-0.16450606 -0.29591903 1.6569999
-0.15587309 -0.29495981 1.6569998
-0.14573276 -0.29413763 1.6569998
-0.13956635 -0.29208216 1.6570001
-0.16258761 -0.28776568 1.6570001
-0.15683229 -0.28805345 1.6569999
-0.14532167 -0.28776568 1.6569999
-0.13956635 -0.28920451 1.6570001
-0.18072188 -0.37156418 1.6650001
-0.17783032 -0.37156418 1.6650001
-0.21542048 -0.36288953 1.6650001
-0.19228809 -0.36288953 1.6650001
-0.18602304 -0.36674491 1.6650001
-0.22313128 -0.35325101 1.6650001
-0.21650481 -0.35602212 1.6650001
-0.20530008 -0.35493779 1.6650001
-0.19517963 -0.35903415 1.6650001
-0.21831203 -0.3484318 1.6650001
-0.20963739 -0.3484318 1.6650001
-0.21542048 -0.33438712 1.6650001
-0.22264935 -0.32529938 1.6650001
-0.21542048 -0.32529938 1.6650001
-0.20963739 -0.32819092 1.6650001
-0.22409514 -0.31951627 1.6650001
-0.2134928 -0.31662473 1.6650001
-0.20819162 -0.31373319 1.6650001
-0.18072188 -0.302167 1.6650001
-0.19228809 -0.29927543 1.6650001
-0.18686642 -0.29674533 1.6650001
-0.17397493 -0.29734772 1.6650001
-0.16799906 -0.292914 1.6650002
-0.16770992 -0.28770924 1.6650001
-0.19030654 -0.37044403 1.6730001
-0.18594837 -0.37334949 1.6730001
-0.21258162 -0.36269617 1.673
-0.19611745 -0.36463317 1.673
-0.23098275 -0.35301137 1.6730001
-0.22575295 -0.35243028 1.6730001
-0.21209738 -0.35882226 1.6730001
-0.2077392 -0.35882226 1.6730001
-0.23098275 -0.34720048 1.6730001
-0.22420339 -0.34429502 1.673
-0.22371915 -0.334126 1.6730001
-0.21936098 -0.33267328 1.6730001
-0.26294264 -0.32395694 1.673
-0.25132087 -0.32105151 1.6730001
-0.23098274 -0.32395694 1.673
-0.22807731 -0.32540968 1.6730001
-0.25132087 -0.31233516 1.6730001
-0.23098275 -0.31233516 1.6730001
-0.23098275 -0.30942973 1.6730001
-0.18159021 -0.30071339 1.6730001
-0.1922435 -0.29490253 1.673
-0.18352717 -0.29393402 1.6730002
-0.17795841 -0.2949025 1.6730001
-0.18449564 -0.28909162 1.673
-0.16851571 -0.28618619 1.6730001
-0.19267622 -0.37367511 1.6810001
-0.18391821 -0.37805411 1.6810001
-0.19851491 -0.36783642 1.6810001
-0.23500662 -0.35178009 1.6810001
-0.27003866 -0.34010273 1.6810001
-0.26565963 -0.34010273 1.6810001
-0.25544196 -0.34010273 1.6810001
-0.24668396 -0.34302208 1.6810001
-0.23427679 -0.34667122 1.6810001
-0.22673516 -0.34302208 1.6810001
-0.26503405 -0.33426407 1.681
-0.25544193 -0.33377752 1.6810001
-0.23306037 -0.33231783 1.6810001
-0.22916794 -0.33572373 1.6810001
-0.27003866 -0.32404637 1.6810001
-0.26419997 -0.32550606 1.6810001
-0.25580686 -0.32587099 1.681
-0.24279149 -0.32355982 1.6810001
-0.23617435 -0.32492217 1.6810001
-0.27003866 -0.31820768 1.6810001
-0.26419997 -0.31674802 1.681
-0.25570738 -0.31542107 1.6809999
-0.24303479 -0.31382871 1.681
-0.23597974 -0.31545055 1.681
-0.25398231 -0.30799001 1.6810001
-0.24084528 -0.30799001 1.6810001
-0.23208727 -0.30799001 1.6810001
-0.176036 -0.29164171 1.6810001
-0.1742844 -0.28580305 1.6810001
-0.20199692 -0.37303081 1.6980001
-0.19811025 -0.37420827 1.6900001
-0.24213475 -0.35072854 1.6900001
-0.23846605 -0.3573322 1.6900001
-0.2744194 -0.34192362 1.6900001
-0.26561448 -0.34388027 1.6900001
-0.25093967 -0.34192362 1.6900001
-0.24409139 -0.34436941 1.6900002
-0.23626481 -0.34412485 1.6900003
-0.284565 -0.33322117 1.6980001
-0.27866727 -0.3332212 1.6980001
-0.26267952 -0.3360537 1.6900001
-0.25345534 -0.33563441 1.6900003
-0.24506973 -0.33458617 1.6900004
-0.23752265 -0.33605367 1.6900003
-0.29164228 -0.32525927 1.6980002
-0.28397068 -0.32516825 1.6944447
-0.27632222 -0.3248302 1.6926666
-0.25093967 -0.32431385 1.6900001
-0.24624372 -0.32431382 1.6900002
-0.29046273 -0.31995133 1.6980001
-0.28445444 -0.31540242 1.6973333
-0.27575213 -0.31522655 1.6964
-0.26645502 -0.31208596 1.6953334
-0.25093967 -0.31550893 1.6900001
-0.24653721 -0.31844389 1.6900001
-0.27276957 -0.30815586 1.6980001
-0.26343152 -0.30618998 1.6980001
-0.2546877 -0.30548617 1.6936364
-0.24575967 -0.30535546 1.6929092
-0.23553221 -0.30501649 1.6922859
-0.25360197 -0.29930931 1.6980001
-0.24405098 -0.29592592 1.6972001
-0.23430961 -0.29491207 1.6953335
-0.2255878 -0.29341158 1.6980001
-0.18577819 -0.29046273 1.6980001
-0.23148552 -0.28751385 1.6980001
-0.18176822 -0.2875891 1.6926666
-0.28442433 -0.35108629 1.7060001
-0.27998021 -0.35108629 1.7060001
-0.28393054 -0.34417319 1.706
-0.2774407 -0.34516075 1.7060002
-0.30170706 -0.33133459 1.706
-0.29627535 -0.33182839 1.7060001
-0.28442433 -0.33923528 1.7060001
-0.27617094 -0.33669576 1.7060002
-0.30220085 -0.32442153 1.7060002
-0.29701602 -0.32368082 1.7060001
-0.30071947 -0.31701463 1.7060001
-0.29257193 -0.31627393 1.7060001
-0.27701744 -0.31257048 1.7060001
-0.29183123 -0.30664498 1.706
-0.28590575 -0.30516362 1.706
-0.27595931 -0.30452871 1.706
-0.26643616 -0.30368224 1.7060002
-0.25924093 -0.30071947 1.7060001
-0.22961339 -0.30368224 1.7060001
-0.27405471 -0.29627535 1.7060002
-0.26398131 -0.29538649 1.7060001
-0.25561979 -0.29545239 1.7060002
-0.24442716 -0.29183123 1.7060001
-0.23850165 -0.29183123 1.7060001
-0.22862582 -0.29281881 1.706
-0.24294579 -0.28886846 1.7060001
-0.2355389 -0.28886846 1.7060001
-0.22813201 -0.28886846 1.7060001
-0.21776238 -0.28738707 1.7060001
-0.22763823 -0.27701747 1.706
-0.30230591 -0.34102491 1.715
-0.29337075 -0.34357783 1.715
-0.28592482 -0.34698167 1.715
-0.31273025 -0.33506814 1.715
-0.30528429 -0.33581275 1.715
-0.29634914 -0.33804652 1.715
-0.31124106 -0.32464379 1.715
-0.30766702 -0.32375029 1.7149999
-0.29932752 -0.32017621 1.715
-0.31124106 -0.31421944 1.715
-0.30565658 -0.31384715 1.715
-0.29783833 -0.31421944 1.715
-0.30329871 -0.3072699 1.715
-0.29684553 -0.30528429 1.715
-0.23082471 -0.30230591 1.715
-0.20104088 -0.30528429 1.715
-0.3231546 -0.29634914 1.715
-0.29188156 -0.29783833 1.715
-0.28401014 -0.29720011 1.715
-0.27550048 -0.29337075 1.715
-0.26613981 -0.29337075 1.715
-0.25465178 -0.29337075 1.715
-0.24869502 -0.29039237 1.715
-0.23975986 -0.29039237 1.715
-0.22337876 -0.29188156 1.715
-0.2159328 -0.29337075 1.715
-0.19508411 -0.29634914 1.715
-0.24571663 -0.28741401 1.715
-0.2342995 -0.28542843 1.715
-0.22387516 -0.28493205 1.715
-0.21742199 -0.28443563 1.715
-0.23380308 -0.27550048 1.7149999
-0.2887547 -0.35159251 1.723
-0.30072382 -0.34261569 1.723
-0.32316589 -0.33064657 1.723
-0.31654015 -0.3340663 1.7229998
-0.33363885 -0.32166976 1.723
-0.32416332 -0.32416332 1.7229999
-0.31718135 -0.324662 1.7229999
-0.33214271 -0.31867748 1.723
-0.32380709 -0.31611267 1.7229998
-0.31718132 -0.31568518 1.7229999
-0.32346511 -0.30491298 1.7229999
-0.31568518 -0.30507624 1.7229997
-0.30670837 -0.30542594 1.7229998
-0.29773155 -0.30072382 1.723
-0.20197868 -0.30371609 1.723
-0.32346511 -0.29354233 1.7229999
-0.31668261 -0.29573667 1.7229999
-0.29324311 -0.29473925 1.723
-0.27379334 -0.29174697 1.723
-0.25434351 -0.29174697 1.723
-0.21309285 -0.29431179 1.7229998
-0.19300185 -0.29174697 1.723
-0.32565945 -0.28775728 1.723
-0.27379334 -0.2887547 1.723
-0.26481649 -0.2887547 1.723
-0.24436927 -0.28526372 1.7229999
-0.23564179 -0.28501436 1.723
-0.22741303 -0.28576243 1.723
-0.21394779 -0.28800663 1.723
-0.24349654 -0.27715963 1.7229998
-0.237886 -0.27828175 1.723
-0.29527619 -0.35443166 1.732
-0.33337632 -0.33337632 1.732
-0.32635787 -0.33437896 1.732
-0.34440535 -0.3248539 1.7320001
-0.33357686 -0.32695946 1.7320001
-0.32736054 -0.32736051 1.732
-0.32334998 -0.31131834 1.7320001
-0.32334998 -0.30831045 1.7320001
-0.31432626 -0.30530256 1.7320001
-0.30530253 -0.30229464 1.732
-0.32184601 -0.290263 1.7320001
-0.31492788 -0.29447407 1.7320001
-0.30530256 -0.29928672 1.7320001
-0.29928672 -0.29778278 1.7320001
-0.28274322 -0.290263 1.7320001
-0.26018393 -0.290263 1.7320001
-0.2556721 -0.290263 1.7320001
-0.20904952 -0.290263 1.7320001
-0.32184601 -0.28725511 1.7320001
-0.28274322 -0.28725511 1.7320001
-0.2746219 -0.28605193 1.7320001
-0.26469579 -0.28575113 1.7320002
-0.25373843 -0.28338778 1.7320002
-0.24664834 -0.28725511 1.7320001
-0.21205743 -0.28725511 1.7320001
-0.20904952 -0.28725511 1.7320001
-0.25216284 -0.27722874 1.732
-0.2481523 -0.27522346 1.7320001
-0.30285761 -0.35728124 1.7410001
-0.29781836 -0.35677731 1.7410001
-0.34921849 -0.33107728 1.7410001
-0.33107728 -0.33712435 1.7410001
-0.35224202 -0.32654196 1.7410001
-0.34770674 -0.31747139 1.7410001
-0.30688897 -0.3008419 1.7410001
-0.2101358 -0.3008419 1.7410001
-0.31369194 -0.29403895 1.7410001
-0.30688897 -0.29517275 1.7410001
-0.2101358 -0.29630661 1.7410001
-0.2010652 -0.29328305 1.7410001
-0.19804166 -0.29630661 1.7410001
-0.32351846 -0.28572422 1.7410001
-0.3159596 -0.28874776 1.7410001
-0.28270069 -0.28421247 1.7410001
-0.27740949 -0.28345656 1.7410001
-0.25700063 -0.28874776 1.7410001
-0.28270069 -0.27967715 1.7410001
-0.2781654 -0.27967715 1.7410001
-0.3619934 -0.34366465 1.7590002
-0.35568321 -0.34550583 1.7579999
-0.37268519 -0.33144546 1.7590001
-0.3650482 -0.33500937 1.7589999
-0.35406289 -0.33582792 1.7500001
-0.34798458 -0.33582792 1.7500001
-0.37192148 -0.32533586 1.7590001
-0.36443231 -0.32613838 1.7573638
-0.35639513 -0.32445261 1.7515001
-0.3711578 -0.31464407 1.7590001
-0.36504817 -0.31464407 1.7590002
-0.35558742 -0.31383675 1.7545
-0.20818292 -0.31151459 1.7500001
-0.3711578 -0.30395228 1.7590001
-0.3646366 -0.30360493 1.757
-0.35649872 -0.30459842 1.7577143
-0.21122208 -0.30543625 1.7500001
-0.20633526 -0.30468503 1.7515001
-0.3635208 -0.29784268 1.7590001
-0.35512012 -0.29707897 1.7590001
-0.34798458 -0.29479918 1.7500001
-0.20601209 -0.29675293 1.7500001
-0.37535968 -0.34312022 1.7680001
-0.36845118 -0.34388781 1.7680001
-0.38303572 -0.3331413 1.7680001
-0.3768096 -0.33552939 1.7679999
-0.36998641 -0.33928216 1.7680001
-0.38380337 -0.32393003 1.768
-0.37796953 -0.32331595 1.768
-0.38349628 -0.31533283 1.768
-0.37766251 -0.31471872 1.768
-0.38226813 -0.30243704 1.7680001
-0.3765111 -0.30550748 1.7679999
-0.38226813 -0.29322577 1.7680001
-0.3761273 -0.29629621 1.7679999
-0.36573505 -0.29369813 1.7679998
-0.35507295 -0.29234847 1.7679999
-0.34695822 -0.29015532 1.7680001
-0.36077514 -0.28708491 1.7680001
-0.34695822 -0.28708491 1.7680001
-0.37289849 -0.3512961 1.7770001
-0.36878377 -0.3533535 1.7770001
-0.40273041 -0.3425523 1.7770001
-0.39501527 -0.3425523 1.7770002
-0.38472843 -0.34409532 1.7770001
-0.37804195 -0.34718138 1.7770001
-0.40273041 -0.33638018 1.7770001
-0.39439803 -0.3351458 1.7770002
-0.38730013 -0.33483717 1.7770001
-0.39259049 -0.32601985 1.7770002
-0.39170879 -0.31543908 1.7770002
-0.38627145 -0.3111774 1.7770001
-0.3929579 -0.30294791 1.7770001
-0.38606569 -0.3039766 1.7770001
-0.39141488 -0.29574707 1.7770001
-0.38524279 -0.29420406 1.7770001
