# .PCD v0.7 - Point Cloud Data file format
VERSION 0.7
FIELDS x y z
SIZE 4 4 4
TYPE F F F
COUNT 1 1 1
WIDTH 923
HEIGHT 1
VIEWPOINT 0 0 0 1 0 0 0
POINTS 923
DATA ascii
0.22278135 -0.20364675 1.5740001
0.20834704 -0.20282792 1.5890001
0.2193853 -0.20144814 1.5890001
0.22227207 -0.20231387 1.585
0.22214486 -0.19730878 1.5890001
0.25801918 -0.16143446 1.5890001
0.20760183 -0.2037214 1.5960001
0.21480832 -0.20337494 1.596
0.22035174 -0.20787901 1.5960001
0.20728506 -0.19501032 1.596
0.2148083 -0.19540629 1.596
0.22146042 -0.19485192 1.5960001
0.21515478 -0.18743758 1.596
0.22146043 -0.18709111 1.5960001
0.24806894 -0.16491735 1.5960001
0.25416675 -0.16380866 1.5960001
0.19904719 -0.23802146 1.603
0.19626331 -0.22688596 1.603
0.19666101 -0.21336427 1.6029999
0.19793364 -0.20517173 1.603
0.20322299 -0.20461492 1.603
0.21575044 -0.20739882 1.603
0.20461494 -0.19487137 1.603
0.2101827 -0.19069555 1.603
0.21408013 -0.18401428 1.603
0.21853432 -0.17956005 1.603
0.22317411 -0.1786321 1.603
0.24590909 -0.1647127 1.603
0.19575824 -0.24305868 1.618
0.20090976 -0.24586859 1.618
0.19451317 -0.23447257 1.6145
0.18873341 -0.22526246 1.618
0.19299619 -0.22477315 1.6145
0.1882651 -0.21355444 1.618
0.19318491 -0.21511902 1.6121668
0.19438753 -0.20420769 1.6152
0.20143944 -0.20004056 1.6110001
0.19687752 -0.19687752 1.6156667
0.20257957 -0.19556387 1.6145
0.20841065 -0.18735746 1.61625
0.21355942 -0.18275356 1.6127501
0.21636435 -0.17843035 1.618
0.22487941 -0.17546603 1.6166
0.2335251 -0.17174721 1.6168333
0.24165371 -0.17000057 1.618
0.23802899 -0.1660129 1.6156667
0.243406 -0.1678662 1.6110001
0.18778403 -0.26402718 1.626
0.19484359 -0.26543906 1.626
0.20535447 -0.26528218 1.6260002
0.21037459 -0.26402718 1.626
0.19578487 -0.25367317 1.626
0.20472695 -0.25555572 1.6260002
0.21037459 -0.25837955 1.626
0.18657383 -0.24506724 1.6260002
0.19311792 -0.24708427 1.6260002
0.20331505 -0.24990807 1.626
0.18521692 -0.23399201 1.6260002
0.19060786 -0.23437706 1.626
0.18460725 -0.22414073 1.6260002
0.19060786 -0.22166988 1.626
0.18464647 -0.21508098 1.6260002
0.19060786 -0.21461032 1.626
0.18637212 -0.20472695 1.626
0.19060786 -0.20472695 1.626
0.18778403 -0.19907932 1.626
0.19519657 -0.19519657 1.6260002
0.20331505 -0.19201976 1.626
0.20613888 -0.18566617 1.626
0.21178651 -0.1821364 1.626
0.21521544 -0.17648876 1.6260002
0.22378775 -0.17154707 1.626
0.23437707 -0.17225303 1.626
0.22731751 -0.1680173 1.626
0.23296516 -0.16660537 1.626
0.17735709 -0.2653262 1.6340001
0.18384328 -0.26370466 1.6339999
0.19438337 -0.26248848 1.6340002
0.20218709 -0.26461679 1.6340001
0.18587023 -0.25567797 1.6340001
0.19381583 -0.25851569 1.6340001
0.2000588 -0.25965077 1.6340001
0.18161364 -0.24546219 1.6339999
0.17735709 -0.23553021 1.6340001
0.18076234 -0.23638153 1.6340001
0.17664766 -0.22488879 1.6340001
0.1801948 -0.22559822 1.6340002
0.17735709 -0.21566622 1.6340001
0.18076234 -0.2148149 1.6340001
0.17735709 -0.20857194 1.6340001
0.1823231 -0.20431536 1.6339999
0.18622494 -0.19473808 1.6339999
0.19324829 -0.19324829 1.6340001
0.18587023 -0.18870795 1.6340001
0.19532926 -0.18681614 1.6339999
0.20336945 -0.18374194 1.6340002
0.20715308 -0.17735709 1.6340001
0.21424736 -0.17330322 1.6339999
0.21708508 -0.16884394 1.6340002
0.22503066 -0.16714132 1.6340001
0.17811687 -0.26218805 1.641
0.18096675 -0.26076311 1.641
0.17803061 -0.25344306 1.649
0.18189979 -0.25609016 1.6430001
0.17644545 -0.24498722 1.6444285
0.16753016 -0.23196484 1.649
0.17278609 -0.23467067 1.6445556
0.16803944 -0.22453277 1.6470001
0.1729175 -0.22522378 1.6427778
0.16753016 -0.21764602 1.649
0.17253508 -0.21460062 1.6446363
0.17513093 -0.20499448 1.6446365
0.18096675 -0.20091584 1.641
0.17707604 -0.19521323 1.649
0.18171318 -0.19369097 1.6426001
0.18604586 -0.18711802 1.645
0.19385357 -0.18325642 1.6432858
0.19807696 -0.17803061 1.649
0.20480329 -0.1738344 1.6440771
0.20778713 -0.16720228 1.6458
0.2136595 -0.16687718 1.6426001
0.22086494 -0.1667174 1.641
0.17985354 -0.26042792 1.6570001
0.17553706 -0.25323379 1.6570001
0.16738372 -0.24124356 1.6570001
0.17237163 -0.24488859 1.6569999
0.16464306 -0.23494013 1.6569998
0.15970995 -0.22589606 1.6570001
0.16402644 -0.22445723 1.6569998
0.15970995 -0.21150777 1.6570001
0.16510557 -0.21402572 1.6569998
0.15970995 -0.20719129 1.6570001
0.16546528 -0.20575243 1.6569998
0.17122057 -0.20431364 1.6570001
0.16642447 -0.19807871 1.6569999
0.17245385 -0.19506402 1.6569998
0.17665616 -0.18624833 1.6569998
0.18488945 -0.18345062 1.6570001
0.19136417 -0.1827312 1.6570001
0.18704769 -0.17985354 1.6570001
0.19596842 -0.17496152 1.6569998
0.19670841 -0.16423199 1.6569998
0.20383401 -0.16642448 1.6570001
0.17783032 -0.26313105 1.6650001
0.16915569 -0.25156486 1.6650001
0.17378215 -0.25474554 1.6650002
0.16409548 -0.24469744 1.6650001
0.15758948 -0.23421556 1.6650001
0.16048104 -0.23566133 1.6650001
0.15496078 -0.22514659 1.6650002
0.16048104 -0.22505899 1.6650001
0.15469792 -0.21542048 1.6650001
0.16048104 -0.21686625 1.6650001
0.15534049 -0.20642456 1.6650001
0.16048104 -0.20240851 1.6650001
0.15758948 -0.19807118 1.6650001
0.16409546 -0.19481817 1.6650001
0.16662557 -0.18686642 1.6650001
0.17397493 -0.18264957 1.6650001
0.18216765 -0.18072188 1.6650001
0.17783032 -0.17783032 1.6650001
0.1856375 -0.1755171 1.6650002
0.19228809 -0.17493878 1.6650001
0.18939653 -0.16770992 1.6650001
0.19517964 -0.16799907 1.6650002
0.16822517 -0.26642916 1.6730001
0.1743266 -0.26439536 1.6730002
0.167063 -0.2542263 1.6730001
0.15737818 -0.243573 1.673
0.16125211 -0.24841541 1.6730001
0.15461111 -0.23596351 1.6730002
0.14890398 -0.22444551 1.6730001
0.14963034 -0.21500282 1.6730001
0.14963034 -0.2077392 1.6730001
0.15350427 -0.20289679 1.673
0.15718448 -0.19495526 1.6730001
0.16125211 -0.19175926 1.6730001
0.15834667 -0.1874011 1.6730001
0.1646418 -0.18352717 1.6730002
0.16996844 -0.17868477 1.6730001
0.17636041 -0.17636041 1.6730001
0.18304294 -0.17287388 1.6730001
0.17868477 -0.16996844 1.6730001
0.18449564 -0.16851573 1.6730002
0.15813075 -0.26614621 1.6810001
0.16530745 -0.2645649 1.681
0.1707812 -0.26419997 1.6810001
0.15735224 -0.25485808 1.6810001
0.16319093 -0.25602582 1.6810001
0.15451632 -0.24543282 1.681
0.1474265 -0.23208727 1.6810001
0.15034585 -0.23500662 1.6810001
0.14487208 -0.22369419 1.681
0.14596683 -0.21457125 1.6810001
0.14669667 -0.20654307 1.6810001
0.15034585 -0.20435357 1.6810001
0.15368223 -0.19538704 1.681
0.15813075 -0.18537788 1.6810001
0.16202319 -0.18245855 1.6810001
0.16567236 -0.17880937 1.6810001
0.17333564 -0.17333563 1.681
0.17807955 -0.16786186 1.6810001
0.14773789 -0.26333323 1.6980002
0.15506409 -0.26365784 1.6900002
0.16289066 -0.26267952 1.6900001
0.147443 -0.25507641 1.6980001
0.15343355 -0.25583127 1.6900003
0.13613904 -0.24131505 1.6980001
0.14431989 -0.24520488 1.6960001
0.15115079 -0.24653721 1.6900001
0.13633426 -0.23380813 1.6955999
0.14469385 -0.23538432 1.6900003
0.13532108 -0.22505639 1.6940001
0.14234589 -0.22745992 1.6900001
0.13602032 -0.21520348 1.6943637
0.14234589 -0.21572006 1.6900001
0.13583414 -0.20543948 1.6951429
0.14418024 -0.20434706 1.6900003
0.13594244 -0.19668898 1.6980002
0.1436789 -0.19472775 1.6934288
0.15115079 -0.19517529 1.6900001
0.14661263 -0.18699659 1.6957144
0.15451038 -0.18438393 1.6920003
0.15761258 -0.17646861 1.6964
0.16450958 -0.17420746 1.6916002
0.16493644 -0.16935973 1.6960001
0.17316304 -0.16876058 1.6900001
0.14369354 -0.26220366 1.7060001
0.13776803 -0.25035265 1.7060001
0.14221217 -0.2547968 1.7060002
0.13406458 -0.24442716 1.7060001
0.12887977 -0.2355389 1.706
0.13184252 -0.23702028 1.7060001
0.12887977 -0.22665064 1.706
0.13184252 -0.22072513 1.7060001
0.12887977 -0.21183687 1.7060001
0.13184252 -0.216281 1.7060001
0.12887977 -0.20591135 1.706
0.12887977 -0.19850448 1.7060001
0.13381769 -0.19455415 1.7060002
0.14517491 -0.1844314 1.7060001
0.14961904 -0.17924657 1.7060001
0.154952 -0.17509873 1.7060001
0.13849483 -0.26358694 1.715
0.14147322 -0.26358694 1.715
0.13700564 -0.25465178 1.715
0.12955968 -0.24422744 1.715
0.13402726 -0.24869502 1.715
0.1265813 -0.23380309 1.715
0.12732589 -0.22412334 1.715
0.1270777 -0.2159328 1.715
0.12530485 -0.2061467 1.715
0.12807049 -0.1965733 1.715
0.13253807 -0.19210573 1.715
0.13700564 -0.18912734 1.715
0.14385593 -0.1825749 1.7149999
0.14742997 -0.17721382 1.715
0.15189755 -0.17572463 1.715
0.1623219 -0.16827866 1.715
0.12417948 -0.26182422 1.723
0.13390438 -0.26257229 1.723
0.12717175 -0.25883195 1.723
0.13230138 -0.25626713 1.7229998
0.12657329 -0.24446902 1.7229999
0.13016404 -0.24985512 1.723
0.11819493 -0.23190145 1.723
0.12268335 -0.23489372 1.7229999
0.11819493 -0.22890916 1.723
0.12268335 -0.22591688 1.7229999
0.11819493 -0.21394779 1.723
0.12218463 -0.21644135 1.7229999
0.12193528 -0.20422289 1.723
0.12455352 -0.19524607 1.7229998
0.13116147 -0.191007 1.723
0.13581611 -0.18468998 1.7229998
0.14213315 -0.18103275 1.723
0.14452697 -0.17624509 1.7229999
0.15335418 -0.17280398 1.723
0.16008681 -0.16906364 1.723
0.12482812 -0.25416812 1.7320001
0.11881232 -0.24514441 1.732
0.12302339 -0.24574597 1.7320001
0.11580441 -0.23397218 1.7320002
0.1097886 -0.22258511 1.7320001
0.11580442 -0.22408904 1.7320002
0.1097886 -0.21506532 1.732
0.11430045 -0.21506535 1.7320002
0.1097886 -0.20904952 1.7320001
0.11607786 -0.2049478 1.7320002
0.11780968 -0.19601525 1.732
0.12282286 -0.19200473 1.732
0.12583077 -0.1859889 1.7320002
0.13184658 -0.182981 1.732
0.1362582 -0.17626336 1.7320001
0.14588349 -0.17295463 1.732
0.13761175 -0.16919476 1.7320001
0.1452819 -0.16874358 1.7320001
0.15415521 -0.16919476 1.7320001
0.16242696 -0.16693883 1.7320001
0.11701087 -0.25609356 1.7409999
0.12245324 -0.25246531 1.7410001
0.11511036 -0.24425857 1.7410001
0.11136694 -0.2343241 1.7410001
0.10733555 -0.22374173 1.7410001
0.1103591 -0.22827703 1.7410001
0.10673086 -0.21497345 1.7409999
0.10733555 -0.2056005 1.7410001
0.11111498 -0.20333284 1.7410001
0.11580145 -0.19441342 1.7409999
0.1194297 -0.18745928 1.7410001
0.12346109 -0.18393183 1.7410001
0.1272909 -0.17748161 1.7409999
0.13152385 -0.17385335 1.7410001
0.13454738 -0.16780628 1.7410001
0.14966507 -0.16780628 1.7410001
0.15722391 -0.16780628 1.7410001
0.10587676 -0.25213578 1.7545002
0.11244917 -0.25225085 1.7500001
0.09724436 -0.24692941 1.7589999
0.10532884 -0.24576961 1.7579999
0.11092959 -0.24465293 1.7500001
0.099280894 -0.23980154 1.7590001
0.10496146 -0.23530555 1.7565455
0.11092959 -0.23857459 1.7500001
0.099280894 -0.22452755 1.7590002
0.10420732 -0.22473945 1.7538573
0.098517194 -0.21459946 1.7590001
0.10334191 -0.21431458 1.7554001
0.098669931 -0.20558782 1.7590001
0.10419074 -0.20415002 1.756
0.099280894 -0.19703439 1.7590001
0.10558499 -0.19438735 1.7572
0.11223049 -0.19398464 1.7545
0.10615419 -0.18710631 1.7590001
0.11467984 -0.18513779 1.7563
0.12106014 -0.18184347 1.7500001
0.11608228 -0.17565082 1.7589999
0.12370007 -0.17447442 1.7540001
0.11760967 -0.16954122 1.7590001
0.12491844 -0.1691075 1.7545002
0.090577587 -0.25023979 1.7680001
0.087507166 -0.24563414 1.7680001
0.093648016 -0.24409895 1.7679999
0.09710224 -0.23450385 1.7679999
0.095183223 -0.22567637 1.768
0.087507166 -0.21339464 1.7680001
0.093033932 -0.21554399 1.7679999
0.087507166 -0.20418338 1.7680001
0.093648016 -0.2041834 1.7679999
0.087507166 -0.19804253 1.7680001
0.094764523 -0.19469295 1.7679998
0.096206702 -0.18780778 1.768
0.10531564 -0.18391857 1.768
0.1069532 -0.17757301 1.768
0.11207058 -0.17654954 1.7680001
0.091038674 -0.24225545 1.7770001
0.091810189 -0.23685487 1.7770001
0.087181106 -0.22296759 1.7770001
0.091038674 -0.22682518 1.7770001
0.084866561 -0.21448095 1.7770001
0.084866561 -0.20522277 1.7770001
0.086100981 -0.19534738 1.7770001
0.086923935 -0.18876381 1.7770001
0.094124734 -0.18413472 1.7770001
0.10029685 -0.18207735 1.7770001
0.097210787 -0.17744826 1.7770001
0.1033829 -0.17590523 1.7770001
0.088398069 -0.24193156 1.7860001
0.088398069 -0.23417735 1.7860001
0.08426249 -0.22487229 1.7860001
0.079093009 -0.21866892 1.7860001
0.082194701 -0.21556723 1.7860001
0.079093009 -0.20471132 1.7860001
0.082194701 -0.20471133 1.7860001
0.082194701 -0.19385542 1.7860001
0.08591672 -0.1851707 1.786
0.093050599 -0.18144867 1.7860001
0.088398069 -0.17834699 1.7860001
0.095376864 -0.17602071 1.7860001
0.10183872 -0.17317753 1.7860001
0.085726209 -0.2353574 1.7950001
0.078452475 -0.22392726 1.7950001
0.082608894 -0.22756413 1.7950001
0.076090865 -0.21466979 1.7950001
0.074815609 -0.2037946 1.7950001
0.07726492 -0.19527765 1.7950001
0.077932924 -0.18859766 1.7950001
0.083647996 -0.18340214 1.7950001
0.087804414 -0.17612839 1.7950001
0.093519509 -0.17456974 1.7950001
0.098195478 -0.16989376 1.7950001
0.10131279 -0.16989376 1.7950001
0.086156033 -0.24593633 1.8040003
0.078845821 -0.23131591 1.8040003
0.083023086 -0.23497102 1.8040001
0.067358352 -0.22087274 1.8040001
0.072997667 -0.22463229 1.8040001
0.066105172 -0.21398027 1.8040001
0.070491299 -0.21460687 1.8040003
0.065791875 -0.20520802 1.804
0.070491299 -0.205208 1.8040001
0.067358352 -0.19737566 1.8040001
0.071744479 -0.19518259 1.8040001
0.075862065 -0.18641032 1.804
0.083023086 -0.18014444 1.8040001
0.086156033 -0.17701149 1.8040001
0.083483309 -0.24099898 1.8140001
0.075607523 -0.23469836 1.8140001
0.080332994 -0.23784867 1.8140001
0.064581424 -0.22367226 1.8140001
0.070882052 -0.22839773 1.8140001
0.0582808 -0.21579647 1.8140001
0.062218692 -0.21658406 1.8140001
0.0582808 -0.20792069 1.8140001
0.062061172 -0.20382528 1.8140001
0.066156581 -0.19374427 1.8140001
0.073244788 -0.18429333 1.8140001
0.080332994 -0.18114302 1.8140001
0.082359686 -0.24391136 1.8240001
0.068105124 -0.23282449 1.8240001
0.071272805 -0.23282449 1.8240001
0.057018243 -0.22332145 1.8240001
0.064937443 -0.2286009 1.824
0.055434402 -0.21381842 1.824
0.056701474 -0.20368183 1.8240001
0.058602083 -0.19639617 1.8240001
0.062561683 -0.19402042 1.8240001
0.065389968 -0.18621433 1.8240002
0.072856642 -0.1821416 1.8240001
-0.01273324 -0.36448902 1.8330001
0.076399446 -0.24193156 1.8330001
0.082766064 -0.24829818 1.8330001
0.057299584 -0.23078999 1.8330001
0.063135646 -0.23291218 1.8330001
0.07162448 -0.2371566 1.8330001
0.048280206 -0.22230117 1.8330001
0.053320441 -0.22521919 1.8330001
0.047749653 -0.21487343 1.8330001
0.052524615 -0.21487343 1.8330001
0.04774965 -0.2053235 1.8330001
0.052524615 -0.2053235 1.8330001
0.049341306 -0.19577356 1.8330001
0.054798413 -0.19531882 1.8330001
0.039791375 -0.18781529 1.8330001
0.046157997 -0.18781529 1.8330001
0.055707932 -0.18622366 1.8329999
0.063666202 -0.18304034 1.8330001
0.065257855 -0.17985702 1.8330001
0.0080016917 -0.39848426 1.8430001
0.046409812 -0.37447917 1.8430001
-0.011202369 -0.36327681 1.8430001
-0.0052582552 -0.36236233 1.8430002
0.046409812 -0.36807781 1.8430001
-0.003734123 -0.35580853 1.8430001
0.003200677 -0.35367477 1.8430001
-0.0026672306 -0.34620655 1.8430001
0.003200677 -0.34567311 1.8430001
0.056011844 -0.33127004 1.8430001
0.068814553 -0.2416511 1.8430001
0.075215906 -0.24485178 1.8430001
0.047209978 -0.23284924 1.8430001
0.056011844 -0.2357832 1.8430001
0.065613873 -0.23845042 1.8430001
0.044580854 -0.22610494 1.8430002
0.036807783 -0.21604568 1.8430001
0.041608796 -0.21604568 1.8430001
0.036807783 -0.20484331 1.8430001
0.042142242 -0.20430987 1.8430002
0.036807783 -0.19364095 1.8430001
0.043209136 -0.19524129 1.8430001
0.0048270649 -0.40064642 1.853
0.012872173 -0.40064642 1.853
-0.0016090217 -0.39099228 1.853
0.0052293204 -0.39380807 1.8529999
0.012550369 -0.39485395 1.853
-0.0016090217 -0.38777423 1.853
0.0053634061 -0.38562885 1.853
0.011263152 -0.38455617 1.853
0.033145849 -0.38262537 1.853
0.041834563 -0.38133815 1.853
0.0048270649 -0.37329304 1.853
0.027353369 -0.37490204 1.853
0.033789456 -0.37490207 1.853
0.042983867 -0.37444237 1.8529999
-0.0032180434 -0.36846596 1.853
0.0039076242 -0.36524794 1.8529999
0.013408515 -0.36417523 1.853
0.027353369 -0.36524794 1.853
0.034191713 -0.36565018 1.8529999
0.044906333 -0.3649554 1.8530002
-0.0032180434 -0.35237575 1.853
0.008045109 -0.35720283 1.853
0.037007499 -0.35881186 1.853
0.042983864 -0.35651323 1.8529999
0.0069724279 -0.34379432 1.853
0.014481195 -0.34272161 1.853
0.046661634 -0.34433064 1.853
0.056315761 -0.3459397 1.853
0.01769924 -0.33306751 1.853
0.047063887 -0.3366878 1.8529999
0.056315757 -0.33720496 1.8529999
0.047948845 -0.32727504 1.853
0.056315761 -0.32984945 1.853
0.082060106 -0.25261641 1.853
0.049879674 -0.24296229 1.853
0.056315761 -0.24296229 1.853
0.064360872 -0.24296229 1.853
0.074014999 -0.24778935 1.853
0.035934817 -0.23116279 1.853
0.04384584 -0.23652621 1.8529999
0.053097717 -0.23974423 1.853
0.034325797 -0.22365403 1.853
0.040225543 -0.22687206 1.853
0.033789456 -0.21399988 1.853
0.033789456 -0.20434576 1.853
0.033789456 -0.19469164 1.853
0.0080885254 -0.40604398 1.863
0.014559346 -0.40604401 1.8630002
0.027500985 -0.40604398 1.863
0.033971805 -0.40604398 1.863
-0.004853115 -0.39310232 1.863
0.016985903 -0.39552888 1.863
-0.0024265577 -0.38501382 1.863
0.0043138801 -0.38231763 1.863
0.015637815 -0.38447455 1.863
0.024265576 -0.38501382 1.8630002
0.034780659 -0.38905808 1.863
-0.0016177051 -0.37530756 1.863
0.0055001974 -0.37433696 1.8630002
0.014559345 -0.37368986 1.863
0.023726342 -0.37368989 1.863
0.053384267 -0.37045446 1.863
0.0080885254 -0.36398363 1.863
0.01509858 -0.36290517 1.863
0.024265574 -0.36398363 1.863
0.031814866 -0.36182669 1.863
0.052575417 -0.3631748 1.863
0.069561318 -0.36398363 1.863
0.072796725 -0.36236593 1.863
0.0080885254 -0.3526597 1.863
0.014559345 -0.35427737 1.863
0.026206821 -0.3549245 1.8630002
0.033971805 -0.3542774 1.863
0.044325121 -0.35233614 1.8630002
0.055001967 -0.3558951 1.863
0.063090496 -0.3575128 1.863
-0.003558951 -0.34392411 1.8630002
0.0040442627 -0.34214461 1.863
0.014559346 -0.3445712 1.863
0.025559738 -0.34457117 1.8630002
0.033971805 -0.34457117 1.863
0.042869184 -0.34618887 1.863
-0.0016177051 -0.33486494 1.863
0.004853115 -0.33486497 1.863
0.014154919 -0.33486497 1.863
0.035050277 -0.33594337 1.863
0.041736789 -0.33421788 1.8630002
-0.0016177051 -0.32677642 1.863
0.004853115 -0.32515872 1.863
0.014559345 -0.32515872 1.863
0.035265971 -0.32515872 1.8630002
0.042753633 -0.32469651 1.863
0.054822225 -0.32551819 1.863
0.064708203 -0.32839411 1.863
0.0059315846 -0.31653094 1.863
0.014559345 -0.31545249 1.863
0.043678034 -0.31868789 1.863
0.050148856 -0.31707019 1.863
0.017794756 -0.30574626 1.863
0.016177051 -0.29604003 1.863
0.014963771 -0.2863338 1.863
0.014963772 -0.27703199 1.863
0.043678038 -0.27339214 1.863
0.050148856 -0.27339214 1.863
0.043678034 -0.26368591 1.863
0.051443022 -0.26303881 1.8630002
0.017794756 -0.25074428 1.863
0.043678038 -0.25721511 1.863
0.053743757 -0.25326073 1.863
0.066325903 -0.25155312 1.863
0.075223282 -0.25317085 1.863
0.084120661 -0.25721511 1.863
0.016985904 -0.24346462 1.863
0.03591305 -0.24362639 1.8630002
0.043678034 -0.24481271 1.863
0.055001974 -0.24750887 1.863
0.06632591 -0.24750887 1.863
0.016500592 -0.23392014 1.8630002
0.027500985 -0.23133183 1.863
0.033324726 -0.23521432 1.8630002
0.017794756 -0.22486098 1.863
0.027500985 -0.2232433 1.863
0.030736396 -0.2264787 1.863
0.017794756 -0.21515477 1.863
0.027500985 -0.21515477 1.863
0.030736396 -0.21515477 1.863
0.017794756 -0.20544854 1.863
0.030736396 -0.20544855 1.863
0.017794756 -0.19897772 1.863
0.02588328 -0.19250689 1.863
0.030736396 -0.19574231 1.863
0.014637496 -0.41391584 1.8730001
0.025209021 -0.41228944 1.8730001
0.023989229 -0.40456408 1.8730001
0.031985637 -0.4028022 1.8730001
0.023931142 -0.39614177 1.8730001
0.033503599 -0.39651352 1.8730001
-0.011384719 -0.38220128 1.8730001
-0.0065055531 -0.38545406 1.8730001
-0.011384719 -0.37732208 1.8730001
-0.0065055536 -0.37732208 1.8730001
0.021143049 -0.37244293 1.8730001
0.021143049 -0.36268461 1.8730001
0.056923594 -0.36593738 1.8730001
0.064404979 -0.36561212 1.8730004
0.021956243 -0.35536584 1.8730001
0.066681921 -0.35943183 1.8730001
0.073187478 -0.35943183 1.8730001
-0.011384719 -0.34316796 1.8730001
-0.0081319418 -0.34316796 1.8730001
0.022769436 -0.34642074 1.8730001
-0.0065055536 -0.33503604 1.8730001
0.024395823 -0.33503595 1.8730005
0.03220249 -0.33275905 1.8730001
0.069934703 -0.33015683 1.8730001
0.073187478 -0.33178324 1.8730001
-0.011384719 -0.32365128 1.8730001
-0.0052857623 -0.32324469 1.8730001
0.024395825 -0.32365131 1.8730003
0.033503599 -0.32169962 1.8730001
0.055839334 -0.32148275 1.8730001
0.065055534 -0.32365128 1.8730004
0.075355999 -0.32419342 1.8730001
-0.013553237 -0.31280872 1.8730001
-0.004879165 -0.31389299 1.8730003
0.003794906 -0.31280872 1.8730001
0.013011107 -0.31064019 1.8730001
0.024395823 -0.31389296 1.8730003
0.034154154 -0.31389296 1.8730003
0.043912489 -0.31389293 1.8730003
0.054077417 -0.31348634 1.8730001
0.063429147 -0.31389293 1.8730003
-0.014637495 -0.30738741 1.8730001
-0.0044725682 -0.30454123 1.8730001
0.0048791645 -0.30413461 1.8730003
0.01268583 -0.30478519 1.8730001
0.024395825 -0.30413464 1.8730003
0.034154154 -0.30413464 1.8730003
0.043912489 -0.30413461 1.8730003
0.05367082 -0.30413461 1.8730003
0.064611979 -0.30383894 1.8730004
-0.0016263884 -0.29762909 1.8730001
0.004879165 -0.29437625 1.8730003
0.011384719 -0.29600269 1.8730001
0.024395823 -0.29437631 1.8730003
0.034154154 -0.29437631 1.8730003
0.043912485 -0.29437625 1.8730003
0.05367082 -0.29437628 1.8730003
0.065055534 -0.29437634 1.8730005
0.075789705 -0.29242462 1.8730001
0.0058085299 -0.28415328 1.8730001
0.011384719 -0.28787073 1.8730001
0.024395823 -0.28461793 1.8730003
0.034154151 -0.28461796 1.8730003
0.043912489 -0.28461796 1.8730003
0.05367082 -0.28461796 1.8730003
0.065055542 -0.28461793 1.8730005
0.073187478 -0.28461799 1.8730001
0.082945809 -0.28787073 1.8730001
0.004879165 -0.27485964 1.8730003
0.013824302 -0.27242005 1.8730001
0.024395825 -0.27485964 1.8730003
0.034154154 -0.27485967 1.8730003
0.043912489 -0.27485964 1.8730001
0.054600183 -0.27485967 1.8730001
0.065055542 -0.27485967 1.8730005
0.073187478 -0.27485964 1.8730001
-0.0016263884 -0.26184854 1.8730001
0.004879165 -0.26510131 1.8730003
0.014637495 -0.26510131 1.8730003
0.024395823 -0.26510131 1.8730003
0.034154154 -0.26510131 1.8730003
0.043912485 -0.26510131 1.8730001
0.056110401 -0.2659145 1.8730001
0.065055534 -0.26510131 1.8730005
0.075627059 -0.26266176 1.8730001
0.086198591 -0.26184854 1.8730001
-0.0024395827 -0.25534296 1.8730001
0.004879165 -0.25534299 1.8730003
0.014230899 -0.25574958 1.8730001
0.024395823 -0.25534299 1.8730003
0.034154154 -0.25534299 1.8730003
0.043912485 -0.2549364 1.8730001
0.056923594 -0.25859576 1.8730001
0.064823195 -0.2572017 1.8730001
0.076440252 -0.25859576 1.8730001
0.004879165 -0.24558465 1.8730003
0.01268583 -0.24623521 1.8730001
0.024395823 -0.24558465 1.8730003
0.031714574 -0.24639784 1.8730001
0.040659711 -0.24883743 1.8730001
0.0052857627 -0.23623291 1.8730001
0.012197913 -0.2366395 1.8730001
0.023989229 -0.23623291 1.8730001
0.03090138 -0.23907909 1.8730001
0.0073187477 -0.22688119 1.8730001
0.013011106 -0.22606798 1.8730001
0.023466459 -0.22653268 1.8730001
0.0061802762 -0.21500854 1.8730001
0.013011106 -0.21630965 1.8730001
0.022769436 -0.21630965 1.8730001
0.0081319418 -0.20817772 1.8730001
0.013824301 -0.20573813 1.8730001
0.024395823 -0.20492493 1.8730005
0.017890273 -0.19679299 1.8730001
0.024395825 -0.196793 1.8730001
0.037606649 -0.40386271 1.8830001
0.057227511 -0.37606651 1.8830001
0.064857848 -0.37334141 1.883
0.070308082 -0.37443143 1.8830001
-0.014715645 -0.36135083 1.8830001
-0.014715646 -0.35481054 1.8830003
-0.0081753582 -0.35154042 1.8830001
-0.01253555 -0.34500015 1.883
-0.0081753582 -0.34827027 1.8830001
-0.012753559 -0.3351897 1.8830001
-0.014715645 -0.32472521 1.8830001
0.073578224 -0.32210913 1.8830001
0.080118515 -0.32210913 1.8830001
-0.021255933 -0.31720391 1.8830001
-0.014715645 -0.31687689 1.8830001
0.073578231 -0.31556883 1.8830003
0.081426568 -0.31491479 1.8830001
-0.012263037 -0.30575842 1.8830001
-0.0081753582 -0.30248827 1.8830001
0.074512556 -0.3062256 1.8830003
0.081753582 -0.30575845 1.8830003
-0.004905215 -0.29548082 1.8830003
0.075213298 -0.29921812 1.8830001
0.082080595 -0.29660201 1.8830001
-0.0024526075 -0.28613755 1.8830001
0.0016350717 -0.28777263 1.8830001
0.076848373 -0.28613755 1.883
0.082298607 -0.2850475 1.8830003
-0.0049052145 -0.27632713 1.8830003
0.075540319 -0.27632713 1.8830001
0.083752006 -0.27596378 1.8830003
-0.0053139827 -0.26692545 1.8830003
0.075758323 -0.26869678 1.883
0.085023724 -0.26815176 1.8830003
0.093199089 -0.26978683 1.8830001
-0.011445502 -0.25507119 1.8830001
-0.0058395416 -0.2548376 1.8830003
-0.0032701434 -0.24362569 1.8830003
-0.0024526075 -0.23463279 1.8830001
0.0016350717 -0.23218018 1.8830001
0.0035971575 -0.22465885 1.8830001
0.004905215 -0.21746454 1.8830001
-0.016994441 -0.35140118 1.8940001
-0.017268546 -0.34372628 1.8940001
-0.01480161 -0.3371478 1.8940001
-0.018090857 -0.32728004 1.8940001
-0.011512363 -0.30096608 1.8940001
-0.0071267015 -0.29329118 1.8940001
-0.011512363 -0.2812306 1.8940001
-0.0071267015 -0.28561625 1.8940001
-0.011512364 -0.27465212 1.8940001
0.087165043 -0.27794135 1.8940001
-0.011512364 -0.26478437 1.8940001
-0.011512363 -0.25162739 1.8940001
-0.0082231173 -0.25162739 1.8940001
-0.0082231173 -0.24504888 1.8940001
-0.0060302857 -0.23518114 1.8940001
-0.0016446233 -0.22531341 1.8940001
0.0016446233 -0.22202416 1.8940001
-0.0032892467 -0.21873491 1.8940001
0.0016446233 -0.21873491 1.8940001
-0.016533067 -0.38356715 1.904
-0.021492988 -0.37530065 1.9039999
-0.016533067 -0.37695393 1.904
-0.021492988 -0.36538076 1.9039999
-0.018186374 -0.36538079 1.904
-0.021492988 -0.35546097 1.9039999
-0.021492988 -0.34884772 1.904
-0.018186374 -0.33562124 1.9039999
-0.011573147 -0.29594192 1.9039999
-0.013557116 -0.28668338 1.904
-0.01487976 -0.27610222 1.9039999
-0.01487976 -0.26783568 1.904
-0.0082665337 -0.23476955 1.904
-0.00495992 -0.22815633 1.904
-0.018291442 -0.39077172 1.9150001
-0.024388589 -0.38412026 1.9150001
-0.03159431 -0.37414312 1.9150001
-0.026605733 -0.37414312 1.9150001
-0.03159431 -0.36416599 1.9150001
-0.026605733 -0.36416599 1.9150001
-0.026051447 -0.35640597 1.9150001
-0.021617159 -0.3442117 1.9150001
-0.021617159 -0.33423457 1.9150001
-0.021617159 -0.3275831 1.9150001
-0.016628584 -0.2926631 1.9150001
-0.018291442 -0.28102306 1.9150001
-0.0049885754 -0.22448589 1.9150001
-0.023958765 -0.40395594 1.9250001
-0.02411796 -0.3956778 1.9250001
-0.018386958 -0.39615539 1.9250001
-0.031759292 -0.38445461 1.9250001
-0.028416209 -0.38779765 1.9250001
-0.035102375 -0.37609687 1.9250001
-0.035102375 -0.36606765 1.9250001
-0.032873653 -0.3582671 1.9250001
-0.026744667 -0.35436684 1.9250001
-0.025073126 -0.34935221 1.9250001
-0.031940773 -0.40346241 1.9360001
-0.028578587 -0.4051435 1.9360002
-0.032781318 -0.39421642 1.9360001
-0.028578587 -0.39841914 1.9360001
-0.037320275 -0.38564283 1.9360001
-0.042027336 -0.37320274 1.9360001
-0.038665149 -0.3748838 1.9360002
-0.038665149 -0.36479726 1.9360002
-0.033621866 -0.35639179 1.9360001
-0.028578587 -0.35302961 1.9360001
-0.026561275 -0.34529659 1.9360001
-0.025216401 -0.33789977 1.9360001
-0.042266127 -0.41251737 1.9470001
-0.035503548 -0.41251734 1.9470001
-0.043111451 -0.40490949 1.9470001
-0.037194192 -0.40406418 1.9470001
-0.043956771 -0.3939203 1.9470001
-0.037757739 -0.39617452 1.9470001
-0.043956771 -0.38377643 1.9470001
-0.045647416 -0.37295631 1.9470001
-0.043956771 -0.36348867 1.9470001
-0.038884837 -0.36010739 1.9470001
-0.042266127 -0.35672611 1.9470001
-0.036179803 -0.35469735 1.9470001
-0.033249352 -0.34883642 1.9470001
-0.028740967 -0.34320095 1.9470001
-0.026486771 -0.33643833 1.9470001
-0.047945548 -0.40566692 1.9579999
-0.049305703 -0.39614582 1.9580001
-0.052706104 -0.38594469 1.9580001
-0.049305703 -0.38594469 1.9580001
-0.052706104 -0.37574348 1.9580001
-0.049305703 -0.37574348 1.9580001
-0.0527061 -0.36724249 1.9580001
-0.049305703 -0.36554229 1.9580001
-0.045905311 -0.35534111 1.9580001
-0.039104525 -0.35194072 1.9580001
-0.042504918 -0.34854034 1.9580001
-0.035704132 -0.34684014 1.9580001
-0.028903345 -0.33663896 1.9580001
-0.053002197 -0.40521038 1.9690002
-0.070099682 -0.39153239 1.9690001
-0.063260689 -0.39153239 1.9690001
-0.056421697 -0.39438197 1.969
-0.058131445 -0.38469338 1.969
-0.056421697 -0.37443486 1.9690002
-0.054142032 -0.36417639 1.9690002
-0.053002201 -0.35562766 1.9690001
-0.04844287 -0.35163823 1.9690002
-0.044453457 -0.34707892 1.9690001
-0.035904713 -0.34365943 1.9690001
-0.027355975 -0.33340093 1.9690001
-0.060175501 -0.41091272 1.9800001
-0.056736901 -0.41091272 1.9800001
-0.060175501 -0.40231621 1.9800001
-0.056736901 -0.40403548 1.9800001
-0.072210602 -0.39028111 1.9800001
-0.065333396 -0.39286005 1.9800001
-0.070491299 -0.38512319 1.9800001
-0.065333396 -0.38512319 1.9800001
-0.062631644 -0.37701795 1.9800003
-0.061035149 -0.36707056 1.9800001
-0.056736901 -0.36449161 1.9800001
-0.060175501 -0.35933372 1.9800001
-0.05587725 -0.35503542 1.9800001
-0.054444503 -0.34787169 1.9800001
-0.046421099 -0.3450062 1.9800001
-0.037824601 -0.3421407 1.9800001
-0.034386002 -0.33870211 1.9800001
-0.063999645 -0.41340309 1.9920001
-0.064576216 -0.40648416 1.9920002
-0.067459084 -0.39956534 1.9920001
-0.081296839 -0.38399786 1.9920001
-0.074954532 -0.38457444 1.9920002
-0.083026558 -0.37880868 1.9920001
-0.073883757 -0.37633768 1.9920003
-0.067459084 -0.37534925 1.9920001
-0.070918523 -0.36497092 1.9920001
-0.065729372 -0.36497092 1.9920002
-0.070918523 -0.35805205 1.9920001
-0.063567214 -0.35502502 1.9920003
-0.061405063 -0.34421429 1.9920001
-0.053621322 -0.3436377 1.9920002
-0.044972721 -0.34075484 1.9920001
-0.03978356 -0.34075484 1.9920001
-0.034594402 -0.33729541 1.9920001
-0.081745774 -0.37568271 2.003
-0.076527953 -0.37220412 2.003
-0.081745774 -0.36698633 2.003
-0.076527953 -0.36350778 2.003
-0.072469652 -0.35539117 2.003
-0.067831598 -0.35307217 2.003
-0.07131014 -0.34785435 2.003
-0.066092327 -0.34698471 2.003
-0.057395965 -0.34263653 2.003
-0.060874511 -0.339158 2.003
-0.053917423 -0.33915797 2.003
-0.042612158 -0.33828834 2.003
-0.036524706 -0.33567944 2.003
-0.082235508 -0.37268433 2.0150001
-0.082235508 -0.36568558 2.0150001
-0.076986432 -0.35693711 2.0150001
-0.053365599 -0.33681566 2.0150001
-0.045491986 -0.33594081 2.0150001
-0.054563463 -0.33500791 2.0270002
-0.06196861 -0.34171262 2.039
-0.063148968 -0.33581087 2.039
-0.056657016 -0.33285999 2.039
-0.064114265 -0.33659989 2.0510001
