# .PCD v0.7 - Point Cloud Data file format
VERSION 0.7
FIELDS x y z
SIZE 4 4 4
TYPE F F F
COUNT 1 1 1
WIDTH 1476
HEIGHT 1
VIEWPOINT 0 0 0 1 0 0 0
POINTS 1476
DATA ascii
0.22520226 -0.18560626 1.4249998
0.23336892 -0.18634868 1.4250001
0.24578767 -0.18594371 1.4250001
0.25489926 -0.18560624 1.4249998
0.26479825 -0.18560624 1.4249998
0.27469727 -0.18560624 1.4249998
0.28356507 -0.18498756 1.4250001
0.40750885 -0.18354397 1.4250001
0.41328326 -0.188081 1.4250001
0.21819048 -0.17776954 1.4250001
0.2251071 -0.17656389 1.425
0.23492447 -0.17570725 1.425
0.2449051 -0.17580244 1.425
0.25489926 -0.17570725 1.4249998
0.26479822 -0.17570728 1.4249998
0.27469727 -0.17570724 1.4249998
0.28459626 -0.17570725 1.4249998
0.29400033 -0.17397493 1.4250001
0.30480671 -0.17282005 1.4250001
0.31503567 -0.17446989 1.4250001
0.32350484 -0.17391992 1.4250001
0.33312884 -0.17391995 1.4250001
0.34399027 -0.17199513 1.4250001
0.35100207 -0.17282005 1.4250001
0.36131352 -0.17199513 1.4250001
0.37739938 -0.17199513 1.4250001
0.38729838 -0.17199512 1.4250001
0.39286658 -0.17385119 1.4250001
0.40565276 -0.17591347 1.4250001
0.23798847 -0.16869545 1.4250001
0.24211304 -0.16869545 1.4250001
0.27593464 -0.16952038 1.4250001
0.28459626 -0.16952038 1.4250001
0.29490772 -0.16828299 1.4250001
0.3049567 -0.16704562 1.4250001
0.31454077 -0.16605572 1.4249998
0.32377979 -0.16683941 1.4250001
0.33397874 -0.1672706 1.4250001
0.34423777 -0.16605572 1.4249998
0.35364178 -0.16754057 1.4250001
0.36255088 -0.16890168 1.4250001
0.37739936 -0.16869545 1.4250001
0.38619849 -0.16787055 1.4250001
0.39513507 -0.16869545 1.4250001
0.40462163 -0.16952038 1.4250001
0.31676799 -0.15962137 1.4250001
0.34275287 -0.15962137 1.4250001
-0.044671062 -0.32118246 1.437
-0.053298671 -0.31497911 1.4370002
-0.045336556 -0.31402841 1.4370002
-0.038681645 -0.31070095 1.437
-0.05315607 -0.30720717 1.437
-0.045455392 -0.30677933 1.4370002
-0.038057748 -0.30570978 1.437
-0.025787765 -0.30363011 1.4370002
-0.052942157 -0.29323182 1.4370002
-0.046667535 -0.29373097 1.437
-0.036685172 -0.29722479 1.437
-0.026203696 -0.29822302 1.437
-0.053298671 -0.28467554 1.4370002
-0.044920627 -0.28449726 1.4370002
-0.036542568 -0.28289297 1.4370002
-0.048664007 -0.27825829 1.437
-0.038681645 -0.27825829 1.437
0.28324947 -0.24082445 1.437
0.29260796 -0.24394393 1.437
0.30737349 -0.2416563 1.4369999
0.31402841 -0.2416563 1.4369999
0.33399311 -0.24248816 1.4369999
0.34064806 -0.24082445 1.437
0.27476448 -0.2313412 1.437
0.28491318 -0.23361495 1.4370002
0.29492545 -0.23530558 1.4348572
0.3054814 -0.23575686 1.434
0.31356904 -0.23518027 1.4330001
0.33363408 -0.23795503 1.4310001
0.34064806 -0.23832886 1.437
0.22460312 -0.22085972 1.437
0.23483501 -0.22435355 1.4370002
0.24408787 -0.22450715 1.4370002
0.2551741 -0.22241946 1.4370002
0.26526231 -0.22446911 1.436143
0.27572864 -0.22539242 1.4328461
0.28561705 -0.22845812 1.431
0.29555774 -0.22881316 1.431
0.30407831 -0.22810312 1.431
0.3160308 -0.22904985 1.4310001
0.19839941 -0.21087736 1.437
0.20505433 -0.21254107 1.4370002
0.21495962 -0.21496364 1.436077
0.22555836 -0.21559365 1.435154
0.23583807 -0.21536876 1.4323846
0.24541056 -0.2151743 1.4309999
0.25565651 -0.21529865 1.431923
0.26591319 -0.21931624 1.4310001
0.27461129 -0.21993755 1.4310001
0.16845234 -0.200895 1.437
0.17543998 -0.20139413 1.437
0.1850896 -0.20359856 1.4370002
0.19473919 -0.20438884 1.4370002
0.20562308 -0.20438257 1.4352001
0.21451536 -0.20638208 1.4309999
0.22739305 -0.20875429 1.4310001
0.23422728 -0.20875429 1.4310001
0.24727443 -0.20900281 1.4310001
0.25555831 -0.20834008 1.431
0.15784608 -0.19278434 1.437
0.16506545 -0.19412126 1.4370002
0.17469132 -0.19465601 1.4370002
0.18467367 -0.19465603 1.4370002
0.19465601 -0.19465603 1.4370002
0.2054501 -0.19424964 1.434
0.21372461 -0.19011551 1.4310001
0.41626596 -0.19384326 1.4310001
0.14449468 -0.18542235 1.437
0.15552063 -0.18433337 1.4370002
0.16470897 -0.18467364 1.4370002
0.17469132 -0.18467365 1.4370002
0.18447831 -0.18448091 1.4355
0.19409628 -0.18414645 1.432875
0.20515499 -0.18401746 1.4318999
0.21413882 -0.18404065 1.431
0.41449085 -0.18230496 1.431
0.14557609 -0.17552318 1.4370002
0.15490484 -0.17433478 1.4370002
0.16470894 -0.17469129 1.4370002
0.17469132 -0.1746913 1.4370002
0.18467367 -0.17469132 1.4370002
0.19460425 -0.17464475 1.4366252
0.20553608 -0.17439952 1.4346001
0.21602066 -0.17392732 1.4313999
0.22632799 -0.17129922 1.431
0.23402017 -0.17106253 1.4310001
0.24789573 -0.17209803 1.4310001
0.25597253 -0.17023414 1.4310001
0.26591319 -0.17023414 1.4310001
0.27461129 -0.17023414 1.4310001
0.29449266 -0.17023414 1.4310001
0.41253823 -0.17271931 1.4310001
0.13600966 -0.16346115 1.437
0.14682388 -0.16429301 1.4370002
0.15472658 -0.16470897 1.4370002
0.16470894 -0.16470894 1.4370002
0.17469132 -0.16524373 1.4370002
0.18467367 -0.16470894 1.4370002
0.19465601 -0.16470896 1.4370002
0.20490243 -0.16484642 1.4362942
0.21541442 -0.16436073 1.4340001
0.22531204 -0.1643115 1.4335716
0.23501529 -0.16412129 1.4338236
0.24538796 -0.16441935 1.4345001
0.25472888 -0.16574574 1.4352002
0.26500553 -0.16562776 1.4357145
0.27506027 -0.16453531 1.4348824
0.28514591 -0.16435987 1.434
0.29519528 -0.16352069 1.4344286
0.30493975 -0.16230297 1.4334
0.31271723 -0.16112186 1.4310001
0.32632056 -0.16235813 1.4335716
0.33528015 -0.16191898 1.4322
0.34481737 -0.16091476 1.4310001
0.35590118 -0.16280237 1.4336667
0.36250192 -0.16418013 1.4346001
0.14599203 -0.15846997 1.437
0.15472658 -0.15722218 1.4370002
0.16470894 -0.15846997 1.437
0.17843468 -0.15846997 1.437
0.18529755 -0.15784608 1.437
0.19465603 -0.15472656 1.4370002
0.20428188 -0.15526135 1.4370002
0.21496105 -0.15620124 1.4370002
0.2246031 -0.15597436 1.4370002
0.23450227 -0.15497614 1.4370002
0.24307045 -0.15547524 1.4370002
0.27576271 -0.15846997 1.437
0.28324947 -0.15846997 1.437
0.29572743 -0.15846997 1.4369999
0.30529383 -0.15763812 1.4370002
0.3146947 -0.15714027 1.4350002
0.32420182 -0.1571119 1.4360002
0.33503166 -0.15678947 1.4343333
0.34415093 -0.1571119 1.4360002
0.3506304 -0.15846997 1.437
-0.049070388 -0.34097627 1.4490001
-0.065287381 -0.33258817 1.4490002
-0.055313457 -0.33438936 1.4477142
-0.045650024 -0.33433038 1.4441999
-0.033438303 -0.33214429 1.4478003
-0.02768073 -0.33091056 1.4490001
-0.071718261 -0.32210305 1.4490001
-0.065768436 -0.32506308 1.4485714
-0.054861899 -0.32501844 1.4434617
-0.045222089 -0.32726213 1.443
-0.035470795 -0.32553416 1.4442858
-0.025278682 -0.32450512 1.4490002
-0.018873226 -0.32210305 1.4490001
-0.084300406 -0.31287614 1.4490002
-0.07514976 -0.31329554 1.4490002
-0.065204367 -0.3154473 1.4458001
-0.056385227 -0.31533962 1.443
-0.044857576 -0.31600785 1.443
-0.034833536 -0.31600791 1.4430002
-0.025431501 -0.31540856 1.4438572
-0.017195605 -0.31245676 1.4490002
-0.083461605 -0.30742386 1.449
-0.074989624 -0.30549461 1.4490002
-0.06532988 -0.30521876 1.4451177
-0.05592959 -0.30448025 1.443
-0.044690508 -0.30392334 1.443
-0.03403997 -0.30531558 1.443
-0.0245589 -0.30623445 1.443
-0.016966365 -0.30479935 1.4475002
-0.065277465 -0.29502198 1.4472355
-0.056663666 -0.29668376 1.443
-0.044310819 -0.29605094 1.443
-0.034286771 -0.29445621 1.443
-0.024764108 -0.29530969 1.4441251
-0.018841965 -0.29518455 1.4466002
-0.063459463 -0.28527665 1.4484547
-0.05667888 -0.28474995 1.4446363
-0.033593558 -0.28630254 1.4435999
-0.025370965 -0.28482285 1.4450002
-0.018873226 -0.28561482 1.449
-0.062731005 -0.27483013 1.4490002
-0.0549515 -0.27504665 1.4463751
-0.044720907 -0.27459478 1.4440002
-0.03481289 -0.27476269 1.444875
-0.025563216 -0.2748155 1.4478
-0.053648245 -0.26424989 1.4480003
-0.045505833 -0.26452938 1.448647
-0.035492256 -0.26479974 1.4483334
-0.026035372 -0.26451552 1.4490001
-0.051586818 -0.25793409 1.4490001
-0.049070388 -0.25541767 1.449
-0.034978379 -0.25642425 1.4490001
-0.028938945 -0.25793409 1.4490001
0.27680731 -0.25038478 1.4490001
0.28534913 -0.25148669 1.4445
0.29568052 -0.25038478 1.4490001
0.30700445 -0.25290123 1.4490001
0.31455377 -0.25290123 1.4490002
0.33371702 -0.25268933 1.4430002
0.26748028 -0.24305134 1.448143
0.27484182 -0.2438423 1.4475001
0.28515849 -0.24593022 1.443706
0.29661787 -0.24556836 1.4435455
0.30505857 -0.24626367 1.4430001
0.31486225 -0.24541 1.443
0.33329934 -0.24809501 1.4430001
0.17363366 -0.23025335 1.4490001
0.18747403 -0.23025335 1.449
0.20383084 -0.23025335 1.4490001
0.21389654 -0.23214066 1.4490002
0.2243129 -0.23360078 1.4448001
0.23540966 -0.23365755 1.4435999
0.24504142 -0.23425829 1.4442
0.25528285 -0.23390752 1.4482502
0.26528803 -0.23498109 1.4460001
0.27591172 -0.23681793 1.443
0.28493336 -0.23882274 1.4430001
0.17632984 -0.22360279 1.4490001
0.18580012 -0.22443564 1.4485714
0.19502334 -0.2252205 1.4490002
0.2047452 -0.22484954 1.4466
0.21600139 -0.22513863 1.4438572
0.22554092 -0.22679393 1.443
0.23180594 -0.22929992 1.4430001
0.249348 -0.22804692 1.4430001
0.25498649 -0.22773366 1.443
0.26313105 -0.22929992 1.4430001
0.16714314 -0.21346523 1.4472859
0.17554055 -0.2144141 1.4440001
0.18580273 -0.21497989 1.4430001
0.19521818 -0.21576749 1.4430002
0.20495583 -0.21820186 1.443
0.21175785 -0.21927588 1.4430001
0.12707971 -0.20149414 1.4490002
0.1358294 -0.20374696 1.4484003
0.14533383 -0.20397063 1.447
0.15626353 -0.20425025 1.4466002
0.16539668 -0.20549284 1.4430001
0.17507897 -0.20697366 1.443
0.18419173 -0.20862533 1.4430001
0.19421577 -0.20925184 1.4430001
0.11827222 -0.19376512 1.4490001
0.12559965 -0.19468772 1.4465002
0.13557516 -0.19521818 1.4430002
0.14534858 -0.19546878 1.4430002
0.15432845 -0.19609529 1.443
0.16289066 -0.1992278 1.4430001
0.10745156 -0.18344775 1.4490001
0.11615658 -0.18563975 1.4472858
0.12539592 -0.18559159 1.4441251
0.13532457 -0.18544473 1.4430002
0.14546248 -0.185103 1.443
0.15361843 -0.18619655 1.4430001
0.08178398 -0.17237546 1.4490001
0.097162157 -0.17489189 1.4490002
0.10552205 -0.17587852 1.44675
0.11530544 -0.17546727 1.4433751
0.12530051 -0.17542069 1.4430002
0.13532457 -0.17542069 1.4430002
0.14284258 -0.1729147 1.4430001
0.15411963 -0.17792672 1.4430001
0.069201827 -0.16230974 1.4490001
0.07652235 -0.16505496 1.4490002
0.085558623 -0.16608439 1.449
0.095624335 -0.16608438 1.449
0.10546668 -0.16573857 1.4460001
0.11527646 -0.16539666 1.4430002
0.12530051 -0.16539666 1.4430002
0.13524103 -0.1654802 1.4430002
0.14266358 -0.16593368 1.443
0.1754207 -0.16163765 1.4430001
0.249348 -0.16163765 1.4430001
0.25536242 -0.16213885 1.4430001
0.26438406 -0.16163765 1.4430002
0.36587748 -0.16163765 1.4430001
0.069201827 -0.15727687 1.4490001
0.075492904 -0.15601863 1.449
0.085199133 -0.15655789 1.4490001
0.095281191 -0.15727688 1.4490002
0.10604955 -0.15655789 1.4490001
0.11548323 -0.155653 1.4456252
0.1253321 -0.15541205 1.4433751
0.13532457 -0.15537265 1.4430002
0.14526504 -0.15512204 1.4430002
0.15537263 -0.153869 1.443
0.16539668 -0.15411961 1.443
0.17517009 -0.15512204 1.4430002
0.1852359 -0.15432845 1.443
0.20799884 -0.15161361 1.4430001
0.21476507 -0.15211481 1.4430001
0.22554091 -0.15161361 1.4430001
0.23681796 -0.15161361 1.4430001
0.24784441 -0.15462081 1.4430001
0.25531572 -0.15557028 1.4448749
0.26535347 -0.15557028 1.4448751
0.27491161 -0.15537374 1.4447144
0.28529704 -0.15500565 1.4444118
0.29542005 -0.15450516 1.4430001
0.30475867 -0.15384118 1.443
0.31466511 -0.15294541 1.4437499
0.32568258 -0.15356447 1.4456667
0.33501256 -0.15321596 1.4450002
0.34529623 -0.15318356 1.4460001
0.35344774 -0.15694605 1.4460001
0.36211845 -0.15913165 1.4430001
0.079267547 -0.14972758 1.4490001
0.08178398 -0.14972758 1.4490001
0.1086259 -0.14888878 1.449
0.11575579 -0.14721116 1.4490002
0.12575443 -0.14839189 1.4482502
0.13616545 -0.14746645 1.4466002
0.14561202 -0.14560811 1.4456253
0.15558797 -0.14680129 1.4450001
0.16578963 -0.14622794 1.4464285
0.17587656 -0.14572173 1.4467502
0.18597387 -0.14575987 1.4471252
0.1953797 -0.14571694 1.4442
0.20513043 -0.14553322 1.4448752
0.21501237 -0.14570895 1.4458001
0.22490951 -0.14649257 1.4457692
0.23526573 -0.14614086 1.4455717
0.24390653 -0.14515953 1.4447143
0.25415942 -0.14595294 1.449
0.26265237 -0.14752571 1.4490002
0.27353597 -0.14922431 1.4490001
0.28561482 -0.14784026 1.4490002
0.29442233 -0.14595294 1.449
0.30440956 -0.14591418 1.4486251
0.31455377 -0.14595295 1.449
0.32643688 -0.14637236 1.4490002
0.33367863 -0.14645621 1.4490002
0.34377232 -0.14777036 1.4490002
0.35230023 -0.14972758 1.4490001
0.14595294 -0.13966186 1.4490001
0.20760548 -0.13966186 1.4490001
0.2146515 -0.13764873 1.4490001
0.22270407 -0.13462901 1.4490001
0.24535193 -0.1382239 1.4490002
0.25541764 -0.13966186 1.4490001
0.29568052 -0.13966186 1.449
0.30448803 -0.13966186 1.4490001
0.31413436 -0.13840365 1.4490002
-0.072015226 -0.34575734 1.455
-0.066059075 -0.34563693 1.455
-0.056011841 -0.3440727 1.455
-0.049273577 -0.34491503 1.455
-0.073910356 -0.33480763 1.455
-0.065878592 -0.33877844 1.455
-0.059380978 -0.33986133 1.455
-0.024366053 -0.33444667 1.455
-0.015341588 -0.33336374 1.455
-0.0088439751 -0.33228078 1.455
-0.10233743 -0.32217339 1.455
-0.09511786 -0.32397828 1.455
-0.085491762 -0.3241387 1.455
-0.075460926 -0.32630825 1.455
-0.023162792 -0.32891166 1.455
-0.015413783 -0.32747978 1.455
-0.0080016917 -0.32806936 1.455
-0.10233743 -0.31964654 1.455
-0.09547884 -0.31621718 1.455
-0.086670965 -0.31686702 1.455
-0.076563552 -0.31863579 1.455
-0.013897674 -0.31603676 1.455
-0.0063171247 -0.3153148 1.455
-0.094756879 -0.30574885 1.455
-0.08639884 -0.30506855 1.455
-0.076647781 -0.3040643 1.455
-0.01245376 -0.30556837 1.455
-0.0071594086 -0.30364314 1.455
-0.092861742 -0.29753661 1.455
-0.085660219 -0.29589415 1.455
-0.0758055 -0.29564154 1.455
-0.013897673 -0.29564145 1.455
-0.083386049 -0.28553405 1.455
-0.0758055 -0.28553405 1.455
-0.068646096 -0.28469178 1.455
-0.014286419 -0.28524253 1.455
-0.082122624 -0.27921695 1.455
-0.075173795 -0.27647951 1.455
-0.067803808 -0.27500552 1.455
-0.059380978 -0.2716364 1.455
-0.021478226 -0.27289981 1.455
-0.015161098 -0.27542669 1.455
-0.072015226 -0.26910955 1.455
-0.065445416 -0.26557192 1.455
-0.058875609 -0.26607734 1.455
-0.021478226 -0.26405585 1.455
-0.016035777 -0.26561081 1.455
-0.0088439751 -0.26910955 1.455
-0.064118817 -0.25679111 1.455
-0.055843379 -0.25495917 1.455
-0.044608627 -0.25492027 1.455
-0.035490762 -0.25417814 1.455
-0.025015818 -0.25495917 1.455
-0.017687948 -0.25521186 1.455
0.27289981 -0.25142157 1.455
-0.061907828 -0.24131419 1.455
-0.055590704 -0.24510446 1.455
-0.045483299 -0.24510443 1.455
-0.035375904 -0.24510445 1.455
-0.025268503 -0.24510445 1.455
-0.018951375 -0.24510446 1.455
0.24636789 -0.24131419 1.455
0.26405582 -0.24426217 1.455
0.27289981 -0.24889474 1.455
-0.061907828 -0.23499706 1.455
-0.0555907 -0.23499705 1.455
-0.045483299 -0.23499703 1.455
-0.035375904 -0.23499706 1.455
-0.025268503 -0.23499711 1.455
-0.018951375 -0.23626049 1.455
0.17814294 -0.23120677 1.455
0.18382835 -0.23247021 1.455
0.19482014 -0.23221752 1.455
0.20404315 -0.23247021 1.455
0.21351881 -0.23626049 1.455
0.25521183 -0.23878734 1.455
-0.061907828 -0.22867993 1.455
-0.055338014 -0.22514234 1.455
-0.045483299 -0.22488964 1.455
-0.035375904 -0.22488967 1.455
-0.025268503 -0.22488964 1.455
0.1667721 -0.22109938 1.455
0.17308924 -0.22488965 1.455
-0.053695563 -0.21604568 1.455
-0.045483299 -0.21478224 1.455
-0.035375904 -0.21478224 1.455
-0.025268503 -0.21478227 1.455
0.1364499 -0.21099198 1.455
0.14226165 -0.21200272 1.455
0.15590665 -0.21200272 1.455
0.1637038 -0.21532372 1.455
-0.045138732 -0.20616798 1.455
-0.035123222 -0.20492752 1.455
-0.025088012 -0.20503582 1.455
-0.01768795 -0.20214802 1.455
0.11749853 -0.20088458 1.455
0.12381566 -0.20467487 1.455
0.13392305 -0.20846513 1.455
0.1465573 -0.20846513 1.455
0.15287443 -0.20846514 1.455
-0.031585626 -0.19835773 1.455
-0.016424526 -0.19204061 1.455
0.10802284 -0.1914089 1.455
0.11424972 -0.19510892 1.455
0.12002538 -0.19835773 1.455
-0.021478226 -0.18572348 1.455
0.08970318 -0.18066978 1.455
0.096561775 -0.18247469 1.455
0.10486428 -0.18680641 1.455
0.11244483 -0.18825033 1.455
-0.0063171252 -0.17435266 1.455
0.0063171252 -0.17056239 1.455
0.066961527 -0.17200629 1.455
0.075460926 -0.17331895 1.455
0.08625748 -0.1758458 1.455
0.093493454 -0.1768795 1.455
-0.01263425 -0.16550867 1.455
-0.0048010149 -0.1650033 1.455
0.0050537004 -0.16361354 1.455
0.013265963 -0.16235012 1.455
0.047589008 -0.16129726 1.455
0.055590704 -0.16045497 1.455
0.065156631 -0.16460623 1.455
0.072015226 -0.1667721 1.455
-0.0063171252 -0.15792812 1.455
0.0063171252 -0.15792812 1.455
0.012634249 -0.15413785 1.455
0.046517015 -0.15517156 1.455
0.055771198 -0.15467931 1.455
0.065445423 -0.15405363 1.455
0.074542075 -0.15034758 1.455
0.087681696 -0.15135832 1.455
0.096441448 -0.1523129 1.455
0.10360085 -0.151611 1.455
0.32470024 -0.15034758 1.455
0.013897675 -0.14782073 1.455
0.049273577 -0.14782073 1.455
0.059380978 -0.14782073 1.455
0.066961527 -0.14782073 1.455
0.076563552 -0.14731535 1.455
0.086165592 -0.14579925 1.455
0.09559916 -0.14613615 1.455
0.10626809 -0.14557463 1.455
0.11446631 -0.14175628 1.455
0.12381566 -0.14339873 1.455
0.13357848 -0.14253734 1.455
0.14339873 -0.1408719 1.455
0.15476955 -0.14213532 1.455
0.16424526 -0.1415036 1.455
0.17435266 -0.14087188 1.455
0.18446006 -0.14024018 1.455
0.19456746 -0.14024018 1.455
0.20341142 -0.14024018 1.455
0.21478225 -0.14024018 1.455
0.22507013 -0.14132312 1.455
0.23415476 -0.14108247 1.455
0.25394842 -0.14024018 1.455
0.26574042 -0.14417082 1.455
0.27567935 -0.14680998 1.455
0.2853536 -0.14457192 1.455
0.29185119 -0.14024018 1.455
0.31964654 -0.14024018 1.455
0.3234368 -0.14403045 1.455
0.33775565 -0.14571501 1.455
0.34912643 -0.14613616 1.455
0.35249558 -0.1465573 1.455
0.14529388 -0.13771333 1.455
0.15034758 -0.13771333 1.455
0.18382835 -0.13708161 1.455
0.19380942 -0.13720796 1.455
0.20657 -0.13708161 1.455
0.21383467 -0.13487063 1.455
0.22194166 -0.13687104 1.455
0.23752391 -0.1364499 1.455
0.24341989 -0.13560762 1.455
0.25521183 -0.13771333 1.455
0.26152897 -0.13771333 1.455
0.30953914 -0.13771333 1.455
0.31459284 -0.13771333 1.455
-0.081526086 -0.35158122 1.4670001
-0.076118097 -0.35141191 1.4610001
-0.057088576 -0.35268056 1.4610001
-0.1019076 -0.34011662 1.4670001
-0.094122998 -0.34351355 1.4670001
-0.084770352 -0.34442109 1.4658002
-0.077104822 -0.344082 1.4610002
-0.054551307 -0.34887466 1.4610001
-0.049476765 -0.34887463 1.4610001
-0.024104064 -0.34210858 1.4610001
-0.017760891 -0.34126282 1.4610001
-0.11337221 -0.33247355 1.4670001
-0.10327928 -0.33413151 1.4643335
-0.093812265 -0.33473313 1.4614618
-0.084998548 -0.33491966 1.4610002
-0.078655377 -0.33618832 1.4610001
-0.024104066 -0.33872557 1.4610001
-0.016492257 -0.33872557 1.4610001
-0.13120604 -0.32228279 1.4670001
-0.12471221 -0.32450005 1.4655002
-0.11432465 -0.32519162 1.4628752
-0.10494678 -0.32584128 1.4620003
-0.094640173 -0.32806903 1.4610001
-0.084998548 -0.32857648 1.4610001
-0.07992401 -0.3260392 1.4610001
-0.013230051 -0.32313946 1.4610002
-0.0060612559 -0.32322004 1.4610002
-0.14139681 -0.31591356 1.4670001
-0.13434166 -0.31522766 1.4670002
-0.12449002 -0.31502622 1.4628752
-0.11417715 -0.31462151 1.4610003
-0.1042818 -0.31436777 1.4610003
-0.0080346884 -0.31166133 1.4610001
-0.14139681 -0.30827051 1.4670001
-0.13511251 -0.30597764 1.4670004
-0.12464926 -0.30525196 1.4647503
-0.11417715 -0.30447242 1.4610003
-0.10402808 -0.30447239 1.4610003
-0.097684897 -0.30066651 1.4610001
-0.0045866035 -0.30437484 1.4610003
0.0027274352 -0.30391088 1.4644287
-0.12402619 -0.29680589 1.4670001
-0.11432726 -0.29469877 1.4628752
-0.10402808 -0.2943233 1.4610003
-0.094724752 -0.29347757 1.4610003
-0.087535821 -0.29051742 1.4610001
-0.0050758421 -0.29462549 1.4625002
0.0033119968 -0.29502252 1.4670001
-0.11458939 -0.28519407 1.4662504
-0.10426872 -0.2848258 1.4643753
-0.093878992 -0.28417423 1.4610003
-0.087028369 -0.28341308 1.4610001
-0.0050777965 -0.28461057 1.4632503
0.0035667657 -0.28610557 1.4670001
-0.1019076 -0.27897206 1.4670001
-0.093321957 -0.27571538 1.4655002
-0.085028499 -0.27411768 1.4615002
-0.0777492 -0.27203161 1.4610002
-0.0061181979 -0.27478039 1.4631821
0.0025476902 -0.27897206 1.4670001
-0.084309094 -0.26478061 1.4636668
-0.076118104 -0.26387614 1.4610003
-0.069774926 -0.26133883 1.4610001
-0.011925169 -0.2631149 1.4610001
-0.0056212181 -0.26382175 1.4627144
0.0030936238 -0.26368591 1.4670001
-0.082743488 -0.25459275 1.4660001
-0.076118104 -0.25499561 1.4610003
-0.06723766 -0.25390822 1.4610002
-0.012686349 -0.25499561 1.4610001
-0.0049829641 -0.25477561 1.464231
0.0025476902 -0.25476903 1.4670001
-0.08110147 -0.24542747 1.4670001
-0.075120755 -0.24549337 1.4627146
-0.06622275 -0.24636893 1.4610003
-0.013954986 -0.24611521 1.4610003
-0.00507975 -0.24534672 1.4640002
0.0035030735 -0.24362284 1.4670001
0.2553128 -0.24452943 1.4610002
0.26218459 -0.24653809 1.4610001
-0.080252238 -0.23396288 1.4670001
-0.07452853 -0.23501892 1.4646001
-0.067237653 -0.23596613 1.4610003
-0.014345334 -0.23567335 1.4610003
-0.00507975 -0.23517682 1.4640003
0.0040531433 -0.23473491 1.4670001
0.14649218 -0.23056595 1.4670001
0.16614579 -0.23165782 1.4670001
0.17126574 -0.23216021 1.4610001
0.18648934 -0.23469748 1.4610001
0.1974842 -0.23554324 1.4610001
0.20594175 -0.23638898 1.4610001
-0.073708482 -0.22479963 1.4663334
-0.06622275 -0.22556326 1.4610003
-0.059625845 -0.22201113 1.4610001
-0.015223621 -0.22581699 1.4610003
-0.0061903489 -0.22471236 1.4654003
0.12651496 -0.22172146 1.4658
0.13427852 -0.22248758 1.4626366
0.14542334 -0.22376171 1.4660772
0.15535483 -0.22348382 1.4665002
0.16454849 -0.22524238 1.4622002
0.17126574 -0.22835431 1.4610001
-0.070698395 -0.21591674 1.4670001
-0.065303251 -0.21567318 1.462286
-0.057722893 -0.21439934 1.4610002
-0.015223621 -0.21566796 1.4610003
-0.005347718 -0.21369319 1.4666003
0.0012738451 -0.21018443 1.4670001
0.10636607 -0.21082135 1.4670001
0.11422145 -0.21145828 1.4670001
0.12504166 -0.21480995 1.4653637
0.13440973 -0.21540298 1.4615456
0.14525871 -0.21598512 1.4610002
0.15413916 -0.21598512 1.4610002
0.1619624 -0.21862811 1.4610001
-0.064327873 -0.20593934 1.4640001
-0.055819944 -0.2055189 1.4610003
-0.046432041 -0.20222041 1.4610001
-0.039327685 -0.20171297 1.4610001
-0.026641335 -0.20298161 1.4610001
-0.014377865 -0.20636463 1.4610003
-0.0050784475 -0.20459975 1.4635004
0.0019107675 -0.20508906 1.4670001
0.095856838 -0.20477059 1.4670001
0.10434546 -0.20488112 1.4655
0.11417715 -0.20488457 1.4610003
0.12242328 -0.20869046 1.4610001
-0.063055329 -0.19808291 1.4670001
-0.055893861 -0.19561693 1.4628754
-0.04567086 -0.19536977 1.4610003
-0.035775505 -0.19511604 1.4610003
-0.025372703 -0.19536975 1.4610003
-0.015042387 -0.19573225 1.4610003
-0.0050768196 -0.19562148 1.4628752
0.0042130868 -0.19581763 1.4665387
0.012313835 -0.19489829 1.4670001
0.066664554 -0.19319983 1.4670001
0.074307628 -0.19404906 1.4670001
0.084304571 -0.19586492 1.4666003
0.094046682 -0.19572568 1.4636252
0.10369502 -0.19597192 1.4614288
0.111217 -0.19832994 1.4610001
-0.054477848 -0.18659148 1.4658
-0.045670856 -0.18522072 1.4610003
-0.035521779 -0.18522072 1.4610003
-0.02562643 -0.18513614 1.4610003
-0.01522362 -0.18522072 1.4610003
-0.0050745402 -0.18522072 1.4610003
0.0050777965 -0.18531775 1.4617504
0.012719564 -0.18570068 1.4647501
0.048830729 -0.18300907 1.4670001
0.056395646 -0.18538225 1.4665717
0.065557428 -0.18524268 1.4640003
0.075235926 -0.18552305 1.4627651
0.084633462 -0.18557319 1.4614619
0.09337154 -0.18699679 1.4610002
0.10022217 -0.18902662 1.4610001
-0.053501491 -0.17579062 1.4670001
-0.045696255 -0.17516088 1.4617503
-0.035521779 -0.17507167 1.4610003
-0.025372703 -0.17507167 1.4610003
-0.015223621 -0.17507166 1.4610003
-0.0048933066 -0.17507164 1.4610003
0.0049899649 -0.17532536 1.4610003
0.014892412 -0.17483382 1.4635717
0.025476903 -0.17451675 1.4670001
0.035936777 -0.17479971 1.4660771
0.045764636 -0.17543635 1.4640003
0.055819936 -0.17507167 1.4610003
0.06498231 -0.17690413 1.4610002
0.076118104 -0.17887755 1.4610001
-0.052227646 -0.16942139 1.4670001
-0.045132026 -0.16612667 1.4656156
-0.035521779 -0.16492254 1.4610003
-0.025372704 -0.16492255 1.4610003
-0.015586087 -0.16474131 1.4610003
-0.0054974183 -0.16365393 1.4610001
0.0050745397 -0.165134 1.4610003
0.01588312 -0.16578524 1.4630003
0.025416663 -0.16521984 1.4636253
0.035521779 -0.16492255 1.4610003
0.045182925 -0.16560569 1.4610003
0.05581994 -0.16619121 1.4610003
-0.042886119 -0.1583814 1.4670001
-0.035233367 -0.15563238 1.4640001
-0.025380192 -0.15481222 1.4613754
-0.01522362 -0.15477347 1.4610003
-0.0048933066 -0.15422978 1.4610003
0.0049899649 -0.15451974 1.4610003
0.017760891 -0.15477347 1.4610002
0.025372703 -0.15477347 1.4610003
0.035521783 -0.15477347 1.4610003
0.04338732 -0.15248993 1.4610001
0.054551307 -0.15096757 1.4610001
-0.031846125 -0.14903986 1.4670001
-0.025121434 -0.14666839 1.4664546
-0.015000806 -0.14515217 1.4638003
-0.00507975 -0.14476897 1.4625002
0.0050745402 -0.1446244 1.4610003
0.015332856 -0.14456622 1.4630004
0.025424801 -0.14491616 1.4640003
0.035538711 -0.14469668 1.4617503
0.045417134 -0.14437069 1.4610003
0.055566214 -0.14437066 1.4610003
0.065676264 -0.14374609 1.4610003
0.075772107 -0.14312509 1.4610003
0.084998548 -0.14183339 1.4610001
0.094724752 -0.14166425 1.4610001
0.10348438 -0.14190589 1.4610002
0.11417715 -0.14081849 1.4610001
0.12559487 -0.14081849 1.4610001
0.15731075 -0.14081849 1.4610001
0.16238528 -0.14081849 1.4610001
0.17126574 -0.14081849 1.4610001
0.26768199 -0.14081849 1.4610001
0.27480081 -0.14279372 1.4617501
0.28336668 -0.14247656 1.4617501
-0.012993219 -0.13528235 1.4670001
-0.0050953804 -0.13884911 1.4670001
0.0049762605 -0.13648139 1.4664546
0.015020605 -0.13516946 1.4658005
0.025731668 -0.13655618 1.4670001
0.03592243 -0.13528234 1.4670004
0.045822274 -0.13492109 1.4658754
0.056049187 -0.13502757 1.4670004
0.064943083 -0.13498026 1.4665003
0.07418412 -0.13511877 1.4655886
0.08425872 -0.13465923 1.4658004
0.094117999 -0.13481659 1.4647503
0.10405381 -0.13450886 1.4613752
0.11426734 -0.13457659 1.4621253
0.12461375 -0.13478108 1.4643754
0.13468046 -0.1346785 1.4632503
0.14433163 -0.13359705 1.4610003
0.15532486 -0.13447411 1.4638003
0.1653032 -0.13478109 1.4643753
0.17515957 -0.13454303 1.4617503
0.184967 -0.13396786 1.4610002
0.19714589 -0.13472904 1.4610001
0.20456739 -0.13479248 1.4610002
0.22750854 -0.13574395 1.4610001
0.23493715 -0.1352464 1.4625002
0.24230929 -0.13320668 1.4610001
0.25534821 -0.13592976 1.4630002
0.014012296 -0.12865835 1.4670001
0.037451044 -0.12763928 1.4670001
0.04585842 -0.12738451 1.4670001
0.055199951 -0.12780912 1.4670001
0.064966097 -0.12865835 1.4670001
0.071335316 -0.12865835 1.4670001
0.097236834 -0.12780912 1.4670001
0.1042605 -0.1265564 1.4623334
0.11441682 -0.127124 1.4640001
0.12101528 -0.12738451 1.4670001
0.13630141 -0.12865835 1.4670001
0.14492658 -0.12839524 1.4640001
0.15540908 -0.12865835 1.4670001
0.16469696 -0.12804358 1.4658
0.17507164 -0.12813213 1.4610001
-0.095929131 -0.35301918 1.473
-0.10360346 -0.34406582 1.473
-0.092091963 -0.34918204 1.473
-0.088254794 -0.34918204 1.473
-0.12534739 -0.33212796 1.473
-0.1158824 -0.33587986 1.473
-0.10744062 -0.33639148 1.473
-0.14538592 -0.32360089 1.473
-0.13600619 -0.32530633 1.4729999
-0.14623863 -0.31478965 1.473
-0.13941699 -0.31848469 1.473
-0.14476576 -0.30406627 1.4729999
-0.13532402 -0.30108958 1.473
0.0063952752 -0.30057794 1.473
-0.14416777 -0.29619259 1.4730002
-0.13576256 -0.29454809 1.4729998
-0.12634222 -0.29233515 1.473
0.0063952752 -0.29801983 1.473
-0.12428153 -0.28458974 1.4729999
-0.11511496 -0.28011304 1.473
-0.10744062 -0.28011304 1.473
-0.001279055 -0.28011304 1.473
0.0051162201 -0.28267115 1.473
-0.10411508 -0.27704331 1.473
-0.097208187 -0.27371779 1.473
-0.001279055 -0.27499685 1.473
0.0031062763 -0.27463141 1.4730002
-0.093603581 -0.26708996 1.4729999
-0.088254787 -0.2647644 1.473
-0.001279055 -0.26860157 1.473
0.0048604091 -0.26783413 1.473
-0.090812907 -0.25964817 1.473
-0.086975746 -0.25581101 1.473
-0.001279055 -0.25709006 1.473
0.0035174012 -0.25517148 1.473
-0.084843986 -0.24472587 1.473
0.0067150388 -0.24653786 1.473
-0.082626954 -0.23560193 1.473
-0.078022361 -0.23534612 1.473
0.0074185194 -0.23457868 1.473
0.011511495 -0.23534612 1.473
0.14964944 -0.23150896 1.473
0.15860282 -0.23278801 1.473
0.16243999 -0.23406707 1.473
-0.081219994 -0.22703227 1.473
-0.078022361 -0.22511369 1.473
-0.001279055 -0.22554004 1.473
0.004050341 -0.22575323 1.4729999
0.12406834 -0.22127652 1.473
0.14964944 -0.22895086 1.473
0.15476567 -0.22895086 1.473
-0.073332489 -0.21445489 1.473
-0.001279055 -0.21871841 1.473
0.0035529302 -0.21587606 1.473
0.095417514 -0.21257894 1.473
0.10488251 -0.21360219 1.473
0.1155413 -0.2161603 1.473
0.12151023 -0.21871841 1.473
-0.071200728 -0.20550151 1.473
-0.06778992 -0.2020907 1.473
0.0067150388 -0.20496857 1.473
0.013338717 -0.20410064 1.4730002
0.06778992 -0.20336975 1.473
0.074398369 -0.20358294 1.4729999
0.084417634 -0.20336975 1.473
0.091665603 -0.20592786 1.473
-0.070348024 -0.19569542 1.473
-0.06551604 -0.19427425 1.473
0.0089533851 -0.19697447 1.473
0.01279055 -0.19697447 1.473
0.049883146 -0.19057921 1.473
0.054487742 -0.19211407 1.473
0.063404582 -0.19569542 1.4730002
0.072906137 -0.19825353 1.473
-0.061394636 -0.18418391 1.473
-0.057557479 -0.18418393 1.473
0.01790677 -0.18418391 1.473
0.024728397 -0.18119945 1.473
0.036666244 -0.18205215 1.473
0.045193281 -0.18503661 1.473
-0.060115587 -0.17650959 1.473
-0.057045855 -0.17318407 1.473
-0.053976126 -0.16602135 1.473
-0.049030442 -0.16329269 1.473
-0.052441258 -0.15988187 1.473
-0.045497816 -0.15659288 1.4730002
-0.038371652 -0.15220755 1.473
-0.035265375 -0.14782222 1.4730002
-0.026348535 -0.14248672 1.473
-0.019185826 -0.1419751 1.473
-0.015668426 -0.13621937 1.473
-0.0051162201 -0.1343008 1.4729999
0.0053720311 -0.13225429 1.473
0.019185826 -0.13174267 1.473
0.025154747 -0.13302173 1.473
0.031976376 -0.13174267 1.473
0.0046898685 -0.12918456 1.473
0.015348661 -0.12854503 1.473
0.034534484 -0.12662645 1.473
0.057557479 -0.12662645 1.473
0.063952751 -0.12726597 1.473
0.076743305 -0.12918456 1.473
0.084417634 -0.12918456 1.473
0.092859402 -0.12764969 1.473
0.12662645 -0.12918456 1.473
0.13174267 -0.12918456 1.473
-0.13032468 -0.36387682 1.4860001
-0.1251633 -0.36172628 1.4860001
-0.14426038 -0.35277987 1.4860001
-0.133405 -0.35464209 1.483
-0.12379047 -0.35460651 1.485
-0.11494575 -0.35329133 1.4825715
-0.10666762 -0.35465705 1.4840001
-0.091244467 -0.35469681 1.48
-0.087389067 -0.35469681 1.48
-0.17345904 -0.34489033 1.4860001
-0.16473383 -0.3451668 1.4860001
-0.15613537 -0.34602353 1.4836
-0.14426038 -0.34589803 1.4860001
-0.13496517 -0.3457872 1.4846153
-0.12548937 -0.34494263 1.4822499
-0.11543521 -0.34425279 1.4803998
-0.1079512 -0.34570086 1.48
-0.22064872 -0.33677962 1.4860001
-0.21376687 -0.33484411 1.4860001
-0.20774528 -0.33290857 1.4860001
-0.17247589 -0.33677959 1.4860001
-0.16380849 -0.33406505 1.4854
-0.15454784 -0.33478418 1.484
-0.14404532 -0.33439159 1.4811249
-0.13493901 -0.33541977 1.48
-0.12594308 -0.33713332 1.48
-0.21239051 -0.32800528 1.4860001
-0.20774528 -0.32774723 1.4860001
-0.19355151 -0.32645687 1.4860001
-0.18378176 -0.32350752 1.4860001
-0.17511804 -0.32461351 1.4860001
-0.16529177 -0.32516098 1.4848001
-0.1545665 -0.3253724 1.4799999
-0.19336717 -0.31429079 1.4860001
-0.18580945 -0.31484377 1.4860001
-0.17569856 -0.3150174 1.4856
-0.16435561 -0.31555006 1.4813845
-0.15447304 -0.31605715 1.4799998
-0.21032597 -0.30065 1.4860001
-0.2051646 -0.30194035 1.4860001
-0.19290633 -0.30645657 1.4860001
-0.18580945 -0.30452105 1.4860001
-0.17484589 -0.30417299 1.4824705
-0.16493317 -0.3054187 1.4813333
-0.15421602 -0.30586168 1.4799998
-0.22839078 -0.29032725 1.4860001
-0.21032597 -0.29548863 1.4860001
-0.2036162 -0.29445633 1.4860001
-0.19570208 -0.29505852 1.4860001
-0.18491612 -0.29449603 1.4860001
-0.1754434 -0.29412371 1.485625
-0.16427466 -0.29528707 1.4812857
-0.15421602 -0.29558069 1.4799998
-0.14573412 -0.2927534 1.48
-0.134939 -0.29301041 1.48
-0.21290666 -0.28516588 1.4860001
-0.20000322 -0.28516588 1.4860001
-0.18387392 -0.28710139 1.4860001
-0.1749337 -0.28424421 1.4860001
-0.16489722 -0.2847001 1.4835999
-0.1545596 -0.2846415 1.4833
-0.1441983 -0.28452635 1.4826999
-0.13520148 -0.28454319 1.480857
-0.1291559 -0.2833719 1.48
-0.17264794 -0.27535927 1.4860001
-0.16530733 -0.27570337 1.4860001
-0.15561542 -0.27690771 1.4860001
-0.14451846 -0.27742383 1.4860001
-0.13348345 -0.27663735 1.48525
-0.12447964 -0.27643016 1.4829998
-0.11530996 -0.27585912 1.4825714
-0.10573144 -0.27349976 1.4799999
-0.11484056 -0.26968175 1.4860001
-0.10541011 -0.26570722 1.4839998
-0.09702757 -0.26345235 1.48
-0.18580943 -0.25677833 1.4860001
-0.10365758 -0.25763857 1.4860001
-0.095199503 -0.25471234 1.4814999
-0.088674203 -0.25188613 1.48
-0.093971036 -0.24586061 1.4823999
-0.08816015 -0.24340427 1.48
-0.091521904 -0.23460153 1.4845001
-0.087434001 -0.23401086 1.4807498
0.0115662 -0.23260914 1.48
0.15464438 -0.2334659 1.48
-0.09161438 -0.22710043 1.4860001
-0.085251406 -0.22483806 1.483
0.0083533665 -0.22425577 1.48
0.011581831 -0.22520573 1.482
0.099356443 -0.22064872 1.4860001
0.10451781 -0.22064872 1.4860001
0.11730012 -0.22364925 1.4845001
0.12139243 -0.22434551 1.482
-0.081982076 -0.21572874 1.4851428
-0.077704176 -0.21437141 1.480857
0.0081391782 -0.21504565 1.48
0.012851333 -0.2159024 1.48
0.085864976 -0.21170247 1.4848001
0.096582979 -0.21570009 1.483
0.10469218 -0.21736364 1.4812
0.11437687 -0.21975781 1.48
-0.081291631 -0.20344412 1.4860001
-0.076464042 -0.20440844 1.4823999
0.0089959335 -0.20947674 1.48
0.014136467 -0.20947674 1.48
0.061936483 -0.20000322 1.4860001
0.08404772 -0.20793457 1.48
0.091244467 -0.20947674 1.48
-0.081291631 -0.19484185 1.4860001
-0.074583136 -0.19508623 1.4808569
-0.068112068 -0.19148487 1.48
0.017991867 -0.19534028 1.48
0.022581009 -0.19419667 1.4860001
0.034839272 -0.19226116 1.4860001
0.044607326 -0.19442749 1.4848
0.053287882 -0.19643021 1.4824001
-0.074730501 -0.18552615 1.48375
-0.06682694 -0.18505923 1.48
0.026251625 -0.18708713 1.4817998
0.035031077 -0.1871708 1.4819999
0.044979665 -0.18891461 1.48
-0.072259232 -0.17677702 1.4860001
-0.064846888 -0.1745107 1.4808569
-0.064374879 -0.16478655 1.4826249
-0.056545865 -0.16321194 1.48
-0.064242773 -0.15505654 1.4856
-0.054072306 -0.15448466 1.4826249
-0.045868549 -0.15217571 1.4809999
-0.060646139 -0.14838949 1.4860001
-0.053641416 -0.14728346 1.4860001
-0.043827821 -0.14436953 1.4845001
-0.03601291 -0.14327742 1.4811999
-0.025702666 -0.14007954 1.48
-0.050323393 -0.13419572 1.4860001
-0.043871675 -0.1367764 1.4860001
-0.034795854 -0.13788092 1.4840001
-0.024436289 -0.13453019 1.4812
-0.017597355 -0.13220347 1.4830002
-0.021935837 -0.12774399 1.4860001
-0.014173979 -0.12599239 1.4836
-0.0051503028 -0.12619446 1.4829999
0.0052925888 -0.12659605 1.4826666
0.01563273 -0.12597607 1.4825715
0.025745651 -0.12743966 1.4825
0.033028509 -0.12568314 1.482
0.065541804 -0.1272282 1.48
0.078393139 -0.1272282 1.48
0.085661784 -0.12681523 1.4812
-0.1325783 -0.36232314 1.4920001
-0.12696423 -0.3614594 1.4920001
-0.13732865 -0.35368606 1.4920001
-0.11400869 -0.35886827 1.4920001
-0.18232864 -0.34208673 1.4934001
-0.17749082 -0.34202611 1.4920001
-0.16712639 -0.34137833 1.4920001
-0.15343054 -0.34517244 1.492
-0.14898863 -0.34591275 1.4920001
-0.22374584 -0.33140141 1.4937501
-0.21894851 -0.3303661 1.4920001
-0.19269793 -0.33171499 1.4934001
-0.18411347 -0.33472997 1.495267
-0.17547551 -0.33526045 1.4920001
-0.1688538 -0.33727574 1.4920001
-0.24080187 -0.32150304 1.4990001
-0.23299208 -0.32336253 1.499
-0.22517273 -0.32512242 1.496308
-0.21608455 -0.32430521 1.4965003
-0.20523396 -0.32276228 1.4927779
-0.19461988 -0.32381019 1.4932729
-0.18785524 -0.32647943 1.4920001
-0.244514 -0.31447265 1.4970912
-0.23489302 -0.31559211 1.4945457
-0.22538786 -0.31481335 1.4960836
-0.215947 -0.31480947 1.4981253
-0.20521849 -0.3147589 1.4936156
-0.19821967 -0.31481946 1.4920001
-0.24369584 -0.30522183 1.4985002
-0.23528875 -0.30586901 1.4935004
-0.22617367 -0.30511838 1.495267
-0.2162424 -0.30586258 1.4977275
-0.20456991 -0.30640337 1.4946926
-0.19660021 -0.30477893 1.4920001
-0.26553288 -0.29026386 1.4990001
-0.25425208 -0.29113162 1.4990001
-0.24444643 -0.29390845 1.4990003
-0.23468055 -0.29475141 1.4931669
-0.22572474 -0.29499605 1.4957336
-0.21545796 -0.29548296 1.4929336
-0.2085841 -0.2914995 1.4920001
-0.19364747 -0.29396707 1.4927002
-0.26466513 -0.28679284 1.4990001
-0.25500149 -0.285294 1.4990002
-0.24475068 -0.28493205 1.4970912
-0.23489647 -0.28459683 1.4931669
-0.22624448 -0.28503698 1.4950002
-0.21546532 -0.28512105 1.4935004
-0.20495653 -0.28493538 1.4920003
-0.19479248 -0.28556052 1.4962003
-0.18448679 -0.28320795 1.4920002
-0.26162797 -0.27854919 1.4990001
-0.25493386 -0.27873513 1.499
-0.24443585 -0.27739161 1.4982224
-0.234919 -0.27605322 1.4960836
-0.22572474 -0.27560368 1.4957336
-0.21637124 -0.27684703 1.4990003
-0.20528498 -0.27674654 1.4984618
-0.19533154 -0.27603272 1.4990003
-0.18423072 -0.2754294 1.4948003
-0.17601018 -0.27336177 1.492
-0.16575429 -0.27206263 1.493
-0.15531035 -0.27347267 1.4939094
-0.14534554 -0.27455664 1.4945003
-0.1353808 -0.27292153 1.4943335
-0.12509854 -0.27224413 1.4940001
-0.27724755 -0.26162797 1.4990001
-0.23125656 -0.26857001 1.4990001
-0.22713472 -0.26748532 1.4990001
-0.21216597 -0.26943776 1.4990001
-0.20565781 -0.26943776 1.4990001
-0.19589558 -0.26715988 1.4990001
-0.18613335 -0.26631385 1.4990001
-0.17456324 -0.26654524 1.4990001
-0.16357172 -0.26813614 1.4990001
-0.15229091 -0.26943776 1.4990001
-0.14708439 -0.26943776 1.4990001
-0.13406807 -0.26943776 1.4990001
-0.12283047 -0.26665476 1.498
-0.11483528 -0.2645379 1.4955003
-0.2759459 -0.25902471 1.4990001
-0.1809268 -0.25902471 1.4990001
-0.17702191 -0.25902471 1.4990001
-0.11063869 -0.25902471 1.4990001
-0.10493982 -0.25522402 1.4920001
-0.092200071 -0.22335488 1.4955001
-0.088669278 -0.22274978 1.4943334
-0.087275028 -0.21536636 1.4951112
-0.085255675 -0.20526822 1.4951112
0.045992147 -0.20145856 1.4920001
0.055064581 -0.20336203 1.4955002
0.063577347 -0.20501757 1.4943334
-0.08291541 -0.19368523 1.4920001
0.02720662 -0.1951967 1.4920001
0.034979939 -0.19595243 1.4920001
0.040162154 -0.19692412 1.4920001
-0.095019117 -0.1809268 1.4990001
-0.083524205 -0.18478404 1.4951112
-0.079028755 -0.18008192 1.4920001
-0.082742907 -0.1771782 1.4966668
-0.076805823 -0.17424925 1.4945457
-0.07309968 -0.16623211 1.4943335
-0.072119139 -0.15848936 1.4920001
-0.054845095 -0.14294273 1.4920001
-0.047935475 -0.14251088 1.4920001
-0.053117692 -0.13706954 1.4920001
-0.047935475 -0.13862421 1.4920001
-0.28115767 -0.32038897 1.506
-0.27592683 -0.32300436 1.506
-0.24192636 -0.32561979 1.506
-0.23721859 -0.32666594 1.506
-0.20531048 -0.32431209 1.506
-0.28115767 -0.31777355 1.506
-0.27069598 -0.31254271 1.506
-0.26197791 -0.31341448 1.506
-0.25448036 -0.31358886 1.506
-0.22623384 -0.31777355 1.506
-0.29292703 -0.30208102 1.506
-0.28429615 -0.30260408 1.506
-0.27363831 -0.30436951 1.506
-0.26415744 -0.30578622 1.5060002
-0.25500345 -0.30600414 1.5060002
-0.24977262 -0.30469644 1.506
-0.22361842 -0.30731186 1.506
-0.29336295 -0.29641429 1.506
-0.28508076 -0.2981579 1.506
-0.27499273 -0.29591611 1.5060003
-0.26415741 -0.29685017 1.5060002
-0.25537708 -0.29759744 1.5059999
-0.24977262 -0.2994656 1.506
-0.29423475 -0.28508079 1.506
-0.28115767 -0.28769618 1.506
-0.27512208 -0.28518137 1.5060003
-0.26633695 -0.28333715 1.506
-0.25761887 -0.28377306 1.506
-0.27383447 -0.2738345 1.5060002
-0.26453105 -0.27405864 1.5060003
-0.255265 -0.27383447 1.5060002
-0.24637258 -0.27278832 1.5060002
-0.23800322 -0.27200371 1.506
-0.22231071 -0.27069598 1.506
-0.21533625 -0.2724396 1.506
-0.20661819 -0.27331141 1.506
-0.19354108 -0.27331141 1.506
-0.18438713 -0.27156779 1.506
-0.16607918 -0.27069598 1.506
-0.1569252 -0.27069598 1.506
-0.14515582 -0.27069598 1.506
-0.13643774 -0.27069598 1.506
-0.1294633 -0.27069598 1.506
-0.2843543 -0.26226854 1.506
-0.27476442 -0.26517451 1.506
-0.26415744 -0.26546517 1.5060002
-0.25587526 -0.26633695 1.506
-0.24541359 -0.26808056 1.506
-0.23512626 -0.26703441 1.506
-0.2236184 -0.26677287 1.506
-0.21446446 -0.26677287 1.506
-0.20531048 -0.26677287 1.506
-0.19447516 -0.26359698 1.5059999
-0.18525892 -0.26430276 1.506
-0.17566903 -0.26590106 1.506
-0.16695099 -0.26633695 1.506
-0.15430978 -0.26808056 1.506
-0.14515582 -0.26808056 1.506
-0.13521722 -0.2675575 1.506
-0.12684788 -0.26513821 1.506
-0.11507848 -0.2602343 1.506
-0.28246537 -0.25761887 1.506
-0.27854225 -0.25761887 1.506
-0.19484879 -0.25761887 1.506
-0.092847414 -0.221003 1.506
-0.091801241 -0.21420291 1.506
-0.090231992 -0.20531048 1.506
-0.091539703 -0.18438712 1.506
-0.08761657 -0.18438713 1.506
-0.090231992 -0.17784856 1.506
-0.08537478 -0.17504634 1.5059999
-0.082385734 -0.16607918 1.506
-0.078462601 -0.16477147 1.506
-0.28622264 -0.32051662 1.5190001
-0.27650097 -0.32219058 1.5120001
-0.3064473 -0.31260261 1.5190001
-0.29382864 -0.31401142 1.5158889
-0.28543004 -0.31460479 1.5134001
-0.2762759 -0.31547594 1.5120002
-0.26757309 -0.31431302 1.5120001
-0.31524062 -0.30310583 1.5190001
-0.30562034 -0.30543107 1.5180002
-0.29488185 -0.30617294 1.5120001
-0.28542882 -0.30748588 1.5120001
-0.27650094 -0.30748588 1.5120001
-0.26477221 -0.30678567 1.5120001
-0.32183561 -0.29545563 1.5190001
-0.31524059 -0.29545566 1.5190001
-0.30548412 -0.29494429 1.5163753
-0.29421344 -0.29301989 1.512
-0.28523189 -0.29310942 1.5120001
-0.27440029 -0.295407 1.5120001
-0.32286152 -0.28592956 1.5190001
-0.31433427 -0.28563774 1.5174445
-0.30497959 -0.28428814 1.5143336
-0.29410219 -0.28402531 1.5131668
-0.28504884 -0.28417221 1.5127778
-0.27440029 -0.28359073 1.5120001
-0.31260261 -0.27435166 1.5190001
-0.30537912 -0.27461952 1.5180669
-0.2942912 -0.2753329 1.5130002
-0.28514233 -0.27535513 1.512
-0.27702615 -0.27702615 1.5120001
-0.18774757 -0.27177444 1.5120001
-0.30205062 -0.26775667 1.5190001
-0.29472384 -0.26579744 1.5138669
-0.28490365 -0.26849213 1.5120001
-0.27308738 -0.26520985 1.5120001
-0.26551226 -0.26157349 1.5137501
-0.2542094 -0.26385102 1.5151112
-0.24527089 -0.26632756 1.5158889
-0.23481296 -0.26418871 1.518
-0.22458936 -0.26318881 1.5155001
-0.2151808 -0.26328996 1.5150001
-0.20568646 -0.26364073 1.5170001
-0.19825092 -0.26258403 1.5120001
-0.29082698 -0.25792497 1.5155001
-0.28654936 -0.25756481 1.5172501
-0.27403101 -0.25954333 1.5172501
-0.26511869 -0.25984269 1.5190001
-0.25588569 -0.25984269 1.5190001
-0.2328032 -0.2591832 1.5190001
-0.22027273 -0.25720468 1.5190001
-0.21433724 -0.25654519 1.5190001
-0.20087677 -0.25733232 1.5120001
-0.19825092 -0.25733232 1.5120001
-0.093217321 -0.21138012 1.5120001
-0.090591483 -0.1838088 1.5120001
-0.090731286 -0.17225389 1.5143334
-0.086652726 -0.17199253 1.5120001
-0.090591483 -0.16542792 1.5120001
-0.086652718 -0.16674085 1.5120001
-0.29529846 -0.32178265 1.5250001
-0.31516162 -0.31449947 1.5250001
-0.30483276 -0.31675062 1.525
-0.29794687 -0.31913421 1.5250001
-0.32509315 -0.30291265 1.5250001
-0.31542641 -0.30801088 1.5250001
-0.40255934 -0.29000163 1.5250001
-0.39726251 -0.29000163 1.5250001
-0.33426803 -0.29265004 1.5250002
-0.32619664 -0.29507777 1.525
-0.3343626 -0.28669113 1.5250001
-0.32752088 -0.28382203 1.5250001
-0.3182514 -0.2829392 1.5250001
-0.33767313 -0.27411112 1.5250001
-0.32539412 -0.27700031 1.525
-0.31516159 -0.27675954 1.5250001
-0.30589217 -0.26616588 1.5250002
-0.26086906 -0.26086906 1.5250001
-0.25115818 -0.26175186 1.5250001
-0.24497855 -0.26219326 1.5250001
-0.23791611 -0.26351747 1.5250001
-0.22511542 -0.26086906 1.5250001
-0.21452177 -0.26086906 1.5250001
-0.20613511 -0.26175186 1.5250001
-0.2847048 -0.25645503 1.5250001
-0.27455252 -0.25733784 1.5250001
-0.26378229 -0.25557223 1.525
-0.25583708 -0.25451285 1.525
-0.24444886 -0.25716129 1.5250001
-0.23655176 -0.25509071 1.525
-0.22908805 -0.25689644 1.5250001
-0.21408035 -0.25557223 1.5250001
-0.20657651 -0.25822064 1.5250001
-0.25027537 -0.24762696 1.5250001
-0.23968172 -0.24762696 1.5250001
-0.32059911 -0.32414654 1.5320001
-0.3156893 -0.32393831 1.5326999
-0.30685279 -0.32414654 1.5320001
-0.35324582 -0.31315488 1.539
-0.34411398 -0.31204122 1.539
-0.33008218 -0.31137305 1.539
-0.32740945 -0.31137305 1.539
-0.40491858 -0.30068213 1.539
-0.37150949 -0.30068213 1.539
-0.35583755 -0.30311191 1.5389999
-0.3446337 -0.30513668 1.539
-0.33466214 -0.30387545 1.5320002
-0.32592025 -0.3086265 1.5320001
-0.40399775 -0.29600137 1.5355
-0.39732808 -0.29466501 1.5355
-0.38888222 -0.29533666 1.539
-0.37251177 -0.29500258 1.539
-0.36449358 -0.29567075 1.539
-0.35539606 -0.29521111 1.5370908
-0.34473503 -0.29532722 1.533909
-0.33762679 -0.29718605 1.5320001
-0.40358225 -0.2899912 1.539
-0.39957315 -0.2899912 1.539
-0.37284586 -0.2899912 1.539
-0.36482766 -0.28197303 1.539
-0.35640678 -0.28432512 1.53725
-0.34473503 -0.28467166 1.533909
-0.33689514 -0.28301847 1.5320001
-0.35467127 -0.27582577 1.5389999
-0.34507206 -0.27445441 1.5343332
-0.33523226 -0.27365896 1.5319998
-0.32430929 -0.27196035 1.5327778
-0.31663275 -0.27189374 1.5334001
-0.36215493 -0.26727301 1.539
-0.3559384 -0.26678923 1.538125
-0.34487593 -0.26419389 1.5345454
-0.33506924 -0.26413622 1.5329999
-0.32521012 -0.26438129 1.5361998
-0.31638876 -0.26440543 1.5347999
-0.3055225 -0.26295334 1.5320001
-0.22570531 -0.26295334 1.5320001
-0.34399807 -0.25866216 1.5355
-0.33212024 -0.25646716 1.5374445
-0.32511854 -0.25524572 1.5390002
-0.31725305 -0.25524572 1.539
-0.29266393 -0.25390935 1.539
-0.28466469 -0.25401458 1.5347999
-0.27448252 -0.25319794 1.5320001
-0.2667225 -0.25341964 1.5320001
-0.25275448 -0.25497162 1.5320001
-0.24648312 -0.2533246 1.5320002
-0.23386228 -0.25250253 1.5331668
-0.22442754 -0.25667879 1.5347999
-0.29266393 -0.24990027 1.539
-0.2836808 -0.24838264 1.5337501
-0.27603447 -0.24809848 1.5320001
-0.24610305 -0.24876362 1.5320001
-0.34590292 -0.32710871 1.5460001
-0.40407544 -0.31278929 1.5460001
-0.36245969 -0.31211808 1.5460001
-0.35430181 -0.31402847 1.5460001
-0.34679785 -0.31457922 1.5460001
-0.42152721 -0.3033922 1.5460001
-0.4141438 -0.30272096 1.5460001
-0.40541792 -0.30406344 1.5460001
-0.37387046 -0.30473465 1.5460001
-0.36615142 -0.30439904 1.5460002
-0.35172015 -0.30741954 1.5460001
-0.42376462 -0.29578504 1.5460001
-0.41481498 -0.29667997 1.5460002
-0.40541792 -0.29533756 1.5460001
-0.39467838 -0.29345816 1.5460002
-0.38528123 -0.29265267 1.5460001
-0.37799373 -0.29476219 1.5460002
-0.36595005 -0.29184717 1.5460001
-0.35413656 -0.2918472 1.5460001
-0.40510809 -0.28511435 1.5460001
-0.39467838 -0.28728285 1.5460002
-0.38461003 -0.28594044 1.5460001
-0.37588415 -0.28459799 1.546
-0.36533642 -0.28440621 1.5460001
-0.35485253 -0.28638789 1.5460001
-0.40273303 -0.27788576 1.5460001
-0.39870569 -0.27788576 1.5460001
-0.37185681 -0.27520087 1.5460001
-0.36514458 -0.27520087 1.5460001
-0.3530626 -0.27385846 1.5460001
-0.41213012 -0.26714623 1.5460001
-0.40944523 -0.26714623 1.5460001
-0.37252802 -0.26714623 1.5460001
-0.36693451 -0.26714623 1.5460001
-0.35485256 -0.26356637 1.5460001
-0.31278932 -0.26446134 1.5460001
-0.30204976 -0.26311889 1.5460001
-0.29936486 -0.26311889 1.5460001
-0.35664245 -0.25640669 1.5460001
-0.34500796 -0.25461677 1.5460002
-0.33856425 -0.25586972 1.5460001
-0.32621375 -0.25909159 1.5460001
-0.31815907 -0.25909159 1.5460001
-0.30204976 -0.25103691 1.5460001
-0.29399511 -0.25909159 1.5460001
-0.30204976 -0.24700958 1.5460001
-0.29936486 -0.24566714 1.5460001
-0.35196418 -0.33038783 1.5530001
-0.34926713 -0.33038783 1.5530001
-0.36373308 -0.32499373 1.5530002
-0.35466123 -0.32499373 1.5530002
-0.34791857 -0.3236452 1.5530001
-0.42208728 -0.31285703 1.5530001
-0.41399613 -0.31312674 1.5530001
-0.40388224 -0.31319413 1.5530002
-0.39619571 -0.31312674 1.5530001
-0.38163164 -0.31150851 1.5530001
-0.37399003 -0.31240752 1.5530001
-0.36612365 -0.31656548 1.5530002
-0.34657007 -0.31959966 1.5530001
-0.43017843 -0.30072033 1.5530001
-0.42523384 -0.30521539 1.5530001
-0.41669321 -0.306885 1.5530002
-0.40287089 -0.30645153 1.5530002
-0.39511684 -0.30439809 1.5530002
-0.38567725 -0.30476591 1.5530001
-0.37623757 -0.30813721 1.5530001
