# .PCD v0.7 - Point Cloud Data file format
VERSION 0.7
FIELDS x y z
SIZE 4 4 4
TYPE F F F
COUNT 1 1 1
WIDTH 676
HEIGHT 1
VIEWPOINT 0 0 0 1 0 0 0
POINTS 676
DATA ascii
0.19999714 -0.22301841 1.6570001
0.20287479 -0.22589606 1.6570001
0.19999714 -0.21726309 1.6570001
0.22877371 -0.18560886 1.6570001
0.19807118 -0.22409515 1.6650001
0.20096274 -0.22987823 1.6650001
0.19807118 -0.21831203 1.6650001
0.22987823 -0.18361343 1.6650001
0.19902287 -0.23098275 1.6730001
0.20192832 -0.23388819 1.6730001
0.19611743 -0.22371915 1.6730001
0.19611743 -0.21936098 1.6730001
0.22662458 -0.18449566 1.6730001
0.20581324 -0.26128063 1.6810001
0.20581324 -0.25544196 1.6810001
0.20435357 -0.24522428 1.6810001
0.19851491 -0.23500662 1.6810001
0.2028939 -0.23792595 1.6810001
0.19510901 -0.22430237 1.6810001
0.19705524 -0.21603093 1.6810001
0.2028939 -0.20873258 1.6810001
0.21457125 -0.19121656 1.6810001
0.21651749 -0.18732411 1.6810001
0.22186959 -0.18537788 1.6810001
0.23208727 -0.18245855 1.6810001
0.205274 -0.26469639 1.6966667
0.1957306 -0.25397056 1.6980001
0.2025127 -0.25387463 1.6900002
0.18725261 -0.2403321 1.6980001
0.19414026 -0.24559873 1.6967692
0.2022192 -0.24565673 1.6900002
0.18776579 -0.2334245 1.6960001
0.19347052 -0.23539963 1.6914548
0.18807371 -0.22457567 1.6948
0.19241954 -0.22591428 1.6916001
0.1872526 -0.21575826 1.6980001
0.19283301 -0.21528842 1.6929092
0.20104523 -0.21278509 1.6900001
0.19461076 -0.20579603 1.6953335
0.20375405 -0.20473236 1.6935556
0.20620959 -0.19609918 1.6980001
0.21149071 -0.19431913 1.6953334
0.21530595 -0.18489461 1.6944447
0.22487693 -0.18225275 1.6926666
0.23286876 -0.1814478 1.692
0.21851054 -0.17604694 1.6980002
0.2251108 -0.17509131 1.6944447
0.23137321 -0.17658716 1.6900001
0.19406036 -0.27405471 1.7060001
0.18714726 -0.26417884 1.706
0.19570632 -0.26450804 1.7060002
0.20294861 -0.26664782 1.7060001
0.18813485 -0.2547968 1.7060001
0.19331968 -0.25850022 1.7060001
0.18665347 -0.24442716 1.7060001
0.1851721 -0.2355389 1.706
0.1851721 -0.22516927 1.7060001
0.18591277 -0.21479961 1.7060001
0.18739416 -0.20591137 1.7060001
0.18813485 -0.19998586 1.7060001
0.19702311 -0.19829285 1.7060002
0.2041337 -0.1934678 1.7060001
0.20887412 -0.18813485 1.7060001
0.21282446 -0.18319695 1.706
0.21395312 -0.17586057 1.7060002
0.20699765 -0.27252209 1.715
0.18614896 -0.26209775 1.715
0.19806249 -0.26656532 1.715
0.18614896 -0.25465178 1.715
0.18465978 -0.24571663 1.715
0.18317059 -0.23529229 1.715
0.1831706 -0.22486794 1.715
0.1831706 -0.2159328 1.715
0.18495759 -0.20640197 1.7149999
0.18763815 -0.19806249 1.715
0.19508411 -0.1955805 1.715
0.20104088 -0.19210573 1.715
0.20699766 -0.18614896 1.715
0.20997603 -0.17721382 1.715
0.2043725 -0.27558869 1.7229999
0.18402502 -0.26182422 1.723
0.18327695 -0.25583968 1.723
0.18252888 -0.24536669 1.723
0.17804046 -0.23339759 1.723
0.18103273 -0.23489372 1.723
0.17804046 -0.22890916 1.723
0.18103273 -0.22591691 1.723
0.18103275 -0.21544392 1.723
0.18252888 -0.20497096 1.723
0.18552116 -0.19749027 1.723
0.19360033 -0.19300185 1.7229999
0.20556942 -0.18462348 1.7229999
0.20796323 -0.17804046 1.723
0.18197836 -0.26018393 1.7320001
0.18197836 -0.25266415 1.7320001
0.17897046 -0.24364045 1.7320001
0.18197836 -0.2481523 1.7320001
0.17671454 -0.23461673 1.7320001
0.17746651 -0.22408904 1.7320002
0.17821848 -0.21506533 1.7320001
0.17897046 -0.20904952 1.7320001
0.18197836 -0.20152974 1.7320001
0.18649021 -0.19551393 1.7320001
0.19551393 -0.19100209 1.7320001
0.19701789 -0.18799417 1.7320001
0.2030337 -0.18498628 1.732
0.20604162 -0.17897046 1.7320001
0.17990045 -0.25548884 1.7410001
0.17788474 -0.24440254 1.7410001
0.17385335 -0.2343241 1.7410001
0.17385337 -0.22827703 1.7410001
0.1768769 -0.21416718 1.7410001
0.17990045 -0.20408873 1.7410001
0.18443574 -0.1965299 1.7410001
0.19199458 -0.19199458 1.7410001
0.1965299 -0.18745928 1.7410001
0.20257697 -0.18443574 1.7410001
0.20711227 -0.1768769 1.7410001
0.21164757 -0.1768769 1.7410001
0.1787056 -0.26118511 1.7590001
0.17580408 -0.25474927 1.75675
0.16954122 -0.24438374 1.7590001
0.17426221 -0.24562632 1.7538573
0.16893026 -0.23430291 1.7590001
0.17171292 -0.23553543 1.7500001
0.16801383 -0.22452755 1.7589999
0.1730154 -0.22424708 1.7500001
0.16831931 -0.21597414 1.7590001
0.1733797 -0.21444231 1.7515001
0.16954122 -0.20925358 1.7590001
0.17598747 -0.20496586 1.7563
0.1787056 -0.19703439 1.7590001
0.18473089 -0.19421212 1.755
0.18890896 -0.18890896 1.7545002
0.19415528 -0.18703783 1.756
0.20190625 -0.18242121 1.7536001
0.20537682 -0.17668988 1.7572
0.16733825 -0.251775 1.7680001
0.17102276 -0.25515246 1.768
0.16733825 -0.24409895 1.7680001
0.16549601 -0.23550174 1.768
0.16350023 -0.22567637 1.7680001
0.16549601 -0.21462283 1.768
0.16733825 -0.2072538 1.7680001
0.17163685 -0.20356929 1.768
0.17611091 -0.19541073 1.7679999
0.1826904 -0.19190167 1.7680001
0.17961997 -0.18883124 1.7680001
0.18576083 -0.18576083 1.7679999
0.19420449 -0.183458 1.7680001
0.18883124 -0.17961997 1.7680001
0.1949721 -0.17808475 1.768
0.20111294 -0.17654954 1.7680001
0.16587555 -0.25537121 1.7770001
0.16510403 -0.24534149 1.7770001
0.16201799 -0.23608334 1.7770001
0.15893193 -0.22836819 1.7770001
0.16201799 -0.2247678 1.7770001
0.16278949 -0.21370944 1.7770001
0.16716141 -0.20522277 1.7770001
0.16819009 -0.19905066 1.7770001
0.17333353 -0.19493592 1.7770001
0.17744826 -0.18824947 1.7770001
0.18300316 -0.18300316 1.7770001
0.18670644 -0.17744826 1.7770001
0.19905066 -0.17436221 1.7770001
0.15973687 -0.26209253 1.7860001
0.16283855 -0.25588918 1.7860001
0.15973687 -0.24503325 1.7860001
0.16283855 -0.2465841 1.7860001
0.15973687 -0.2357282 1.7860001
0.15973687 -0.22332144 1.7860001
0.15973687 -0.21711808 1.7860001
0.16438942 -0.20471132 1.7860001
0.16800803 -0.19592321 1.7860001
0.1731775 -0.19178765 1.7860001
0.17834699 -0.18299952 1.7860001
0.18144867 -0.18144867 1.7860001
0.18144867 -0.17834699 1.7860001
0.15430719 -0.26029596 1.7950001
0.15664518 -0.25484064 1.7950001
0.16054182 -0.25561997 1.7950001
0.15664516 -0.24393004 1.7950001
0.15586585 -0.23535742 1.7950001
0.15586585 -0.22600545 1.7950001
0.15680104 -0.21603008 1.7950001
0.16054182 -0.21197754 1.7950001
0.16158092 -0.20418423 1.7950001
0.16615298 -0.19420883 1.7950001
0.16885465 -0.18755855 1.7950001
0.17456974 -0.18548036 1.7950001
0.17924571 -0.17924571 1.7950001
0.15508087 -0.25376868 1.8040001
0.14881498 -0.24280338 1.8040001
0.15320109 -0.24656291 1.8040001
0.14881498 -0.23497102 1.8040001
0.15194792 -0.23497102 1.8040001
0.14881498 -0.2240057 1.8040003
0.15194792 -0.2240057 1.8040003
0.15351439 -0.21460687 1.804
0.15552843 -0.20610316 1.804
0.16134676 -0.20207506 1.8040001
0.15821381 -0.19894212 1.8040001
0.16239108 -0.19580919 1.8040003
0.16656834 -0.18641032 1.8040003
0.17309532 -0.18092768 1.8040001
0.14963989 -0.25044993 1.8140001
0.1527902 -0.25517541 1.8140001
0.14753968 -0.24414928 1.8140001
0.14648958 -0.23469836 1.8140001
0.14648958 -0.22524743 1.8140001
0.14806473 -0.21579647 1.8140001
0.14963989 -0.20792069 1.8140001
0.15489042 -0.2021451 1.8140001
0.15909083 -0.19531943 1.8140001
0.16224115 -0.19216911 1.8140001
0.16539146 -0.18744364 1.8140001
0.14729713 -0.25183058 1.8240001
0.1504648 -0.25499824 1.8240001
0.14571328 -0.2454952 1.8240001
0.14412944 -0.23599218 1.824
0.14412944 -0.22490528 1.8240001
0.14571328 -0.2138184 1.8240001
0.14729713 -0.20748305 1.8240001
0.15204865 -0.20273152 1.8240001
0.15680017 -0.19586821 1.824
0.1663032 -0.18530929 1.824
0.1437795 -0.24564542 1.8330001
0.13847399 -0.23078999 1.8330001
0.14165729 -0.23397331 1.8330001
0.13847399 -0.22442336 1.8330001
0.14165729 -0.22442336 1.8330001
0.13847399 -0.21805674 1.8330001
0.14293061 -0.21423678 1.8329999
0.14696282 -0.2053235 1.8330001
0.15120722 -0.2021402 1.8330001
0.15518637 -0.19577357 1.8330001
0.16394047 -0.18542781 1.8330001
0.14563079 -0.25445381 1.8430001
0.13922943 -0.2416511 1.8430001
0.14243011 -0.24645211 1.8430001
0.13762909 -0.23524974 1.8430001
0.13602877 -0.2256477 1.8430001
0.13730903 -0.21540554 1.8430001
0.13922943 -0.20964433 1.8430001
0.14499065 -0.20516339 1.8430001
0.14883147 -0.19684163 1.8430001
0.15523283 -0.19364095 1.8430001
0.1584335 -0.18563925 1.8430001
0.16270107 -0.18403892 1.8430001
0.14320293 -0.25261641 1.853
0.13837588 -0.2445713 1.853
0.13462149 -0.23438083 1.853
0.13226157 -0.22301039 1.853
0.1335488 -0.2139999 1.853
0.13998489 -0.2075638 1.853
0.14481196 -0.20273674 1.853
0.14803 -0.19630066 1.853
0.15446609 -0.1930826 1.853
0.1625112 -0.18181945 1.853
0.14074033 -0.25074428 1.863
0.13750494 -0.24750887 1.863
0.13211258 -0.23456722 1.863
0.12779869 -0.2232433 1.863
0.13103411 -0.22809641 1.863
0.12779869 -0.21677247 1.863
0.13103411 -0.21353707 1.863
0.13642646 -0.20760548 1.863
0.14181881 -0.20329161 1.863
0.14613269 -0.19574231 1.863
0.15206426 -0.19250689 1.863
0.15432906 -0.18797734 1.8630002
0.16015279 -0.18280067 1.863
0.13499023 -0.24395826 1.8730001
0.12848468 -0.23257354 1.8730001
0.13173746 -0.23907909 1.8730001
0.12631617 -0.22606798 1.8730001
0.12604511 -0.21549647 1.8730001
0.12848468 -0.2098041 1.8730001
0.13452555 -0.2046926 1.8730001
0.14149579 -0.20004576 1.8730001
0.14420645 -0.19354022 1.8730001
0.14800134 -0.18540828 1.8730001
0.15369371 -0.18459508 1.8730001
0.13898109 -0.25343612 1.8830001
0.14225124 -0.25670627 1.8830001
0.13244081 -0.24362569 1.8830001
0.12699057 -0.23381525 1.883
0.12263038 -0.22400482 1.883
0.12372043 -0.2141944 1.883
0.1278626 -0.205038 1.8830001
0.13407588 -0.20111382 1.8830001
0.12917067 -0.19784367 1.8830001
0.13617812 -0.19550785 1.8830003
0.14225124 -0.19130339 1.8830001
0.14443134 -0.18694322 1.883
0.13650374 -0.25162739 1.8940001
0.12992525 -0.24175964 1.8940001
0.13321449 -0.24833813 1.8940001
0.12444317 -0.23518115 1.8940001
0.12005751 -0.22366878 1.8940001
0.12115393 -0.21544565 1.8940001
0.12444317 -0.2044815 1.8940001
0.12828062 -0.19571018 1.8940001
0.13485911 -0.19242093 1.8940001
0.13869657 -0.18803526 1.8940001
0.14308223 -0.18584244 1.8940001
0.13722445 -0.25626254 1.904
0.1223447 -0.23642287 1.904
0.11738478 -0.2248497 1.904
0.12069139 -0.22980963 1.904
0.11738478 -0.21823648 1.904
0.12069139 -0.21327657 1.904
0.12201403 -0.2053407 1.904
0.12730461 -0.19178358 1.904
0.13226452 -0.19013028 1.904
0.13469154 -0.25441733 1.9150001
0.12804009 -0.24444018 1.9150001
0.13136581 -0.2477659 1.9150001
0.11723151 -0.2336316 1.9150001
0.12138866 -0.23778875 1.9150001
0.1139058 -0.22448589 1.9150001
0.11473722 -0.21506302 1.9150001
0.11806294 -0.20619443 1.9150001
0.12138866 -0.20120586 1.9150001
0.12305152 -0.19455445 1.9150001
0.13873796 -0.26243204 1.9250001
0.14208105 -0.26243204 1.9250001
0.13316615 -0.25574589 1.9250001
0.11867946 -0.24237356 1.9250001
0.12452986 -0.24571663 1.9250001
0.11366484 -0.23568738 1.9250001
0.10865021 -0.22565813 1.9250001
0.1119933 -0.22565812 1.9250001
0.10731298 -0.21629748 1.925
0.11366484 -0.2122858 1.9250001
0.1147792 -0.20559962 1.9250001
0.11867946 -0.19557039 1.9250001
0.12369409 -0.18888421 1.9250001
0.13448748 -0.26225057 1.9360001
0.14625512 -0.26729384 1.9360001
0.11935763 -0.25048292 1.9360001
0.12692255 -0.25300455 1.9360001
0.10927107 -0.24039635 1.9360001
0.11599544 -0.24459909 1.9360001
0.10646925 -0.23367198 1.936
0.10389157 -0.22425786 1.9360001
0.10702962 -0.2112574 1.9360002
0.10815034 -0.20565374 1.9360002
0.11431435 -0.2017312 1.9360001
0.089604184 -0.36179805 1.9470001
0.09552145 -0.36095273 1.9470001
0.10312935 -0.36010739 1.9470001
0.089604184 -0.35503548 1.9470001
0.094676122 -0.35672611 1.9470001
0.10312935 -0.35672611 1.9470001
0.089604184 -0.34996352 1.9470001
0.14032353 -0.34996352 1.9470001
0.14370483 -0.27219385 1.9470001
0.12679838 -0.26204997 1.9470001
0.13288471 -0.26610753 1.9470001
0.14201418 -0.26881257 1.9470001
0.11552741 -0.25303325 1.9470001
0.12409334 -0.2566399 1.9470001
0.10735596 -0.2442982 1.9470001
0.11327322 -0.24683419 1.9470001
0.09974806 -0.23161837 1.9470001
0.10312935 -0.23669031 1.9470001
0.09974806 -0.22823708 1.9470001
0.09974806 -0.21809322 1.9470001
0.10312935 -0.21640256 1.9470001
0.10651064 -0.20456806 1.9470001
0.12751475 -0.40294662 1.9580001
0.13091515 -0.40464681 1.9580001
0.11051279 -0.39444563 1.9580001
0.12453941 -0.39572078 1.9580001
0.13091515 -0.39614582 1.9580001
0.11476327 -0.38339436 1.9580001
0.12411436 -0.38594469 1.9579999
0.13176525 -0.38679475 1.9580001
0.086710036 -0.37234309 1.9580001
0.094190903 -0.37370324 1.9579999
0.10413705 -0.37531844 1.9580001
0.11391318 -0.37574351 1.9579999
0.12411436 -0.37574348 1.9579999
0.13318208 -0.37461004 1.9580001
0.14451672 -0.37234309 1.9580001
0.07650885 -0.36497557 1.9580001
0.085009843 -0.36554229 1.9580001
0.094360925 -0.3680926 1.9580001
0.10419778 -0.36651382 1.9580001
0.11391318 -0.36554229 1.9579999
0.12411436 -0.36554232 1.9579999
0.13431554 -0.36554229 1.9579999
0.14451671 -0.36554229 1.9579999
0.15131751 -0.36554229 1.9580001
0.078209043 -0.35534111 1.9580001
0.085009843 -0.35534111 1.9580001
0.095211022 -0.35364091 1.9580001
0.10371201 -0.35491607 1.9580001
0.11391318 -0.35534111 1.9579999
0.12411436 -0.35534114 1.9579999
0.13431555 -0.35534114 1.9579999
0.14494178 -0.35576618 1.9580001
0.1530177 -0.35534111 1.9580001
0.078775778 -0.34740686 1.9580001
0.085009843 -0.34684011 1.9580001
0.093085766 -0.34556496 1.9580001
0.10419778 -0.34611148 1.9580001
0.11391318 -0.34513992 1.9579999
0.12411436 -0.34513992 1.9579999
0.13431555 -0.34513992 1.9579999
0.14403094 -0.34611148 1.9580001
0.15245098 -0.34740686 1.9580001
0.10711239 -0.33663896 1.9580001
0.11391318 -0.33493873 1.9579999
0.12453941 -0.33536381 1.9580001
0.13318208 -0.33607221 1.9580001
0.10711239 -0.32133719 1.9580001
0.11391318 -0.32473758 1.9579999
0.12453941 -0.32431254 1.9580001
0.13204861 -0.32700452 1.9580001
0.11391318 -0.31496143 1.9580001
0.12411436 -0.31453636 1.9579999
0.13227531 -0.3138563 1.9579999
0.11391318 -0.30433518 1.9579999
0.12411436 -0.30433521 1.9579999
0.13261534 -0.30433521 1.9580001
0.14536682 -0.3017849 1.9580001
0.1045621 -0.29158372 1.9580001
0.11391318 -0.29413402 1.9579999
0.12411436 -0.29413402 1.9579999
0.13431555 -0.29413402 1.9579999
0.14451672 -0.29413402 1.9579999
0.1530177 -0.29073364 1.9580001
0.103712 -0.28393283 1.9579999
0.11391318 -0.28393283 1.9579999
0.12411436 -0.28393286 1.9579999
0.13431555 -0.28393286 1.9579999
0.14451674 -0.28393286 1.9579999
0.1530177 -0.28393283 1.9580001
0.10371201 -0.27373168 1.9579999
0.11391318 -0.27373165 1.9579999
0.12411436 -0.27373165 1.9579999
0.13382977 -0.2747032 1.9580001
0.14451672 -0.27713206 1.9580001
0.15358444 -0.2742984 1.9580001
0.10541219 -0.26438057 1.9580001
0.11391318 -0.26353052 1.9579999
0.12298089 -0.26466393 1.9580001
0.103712 -0.2550295 1.9580001
0.11164626 -0.25559625 1.9580001
0.096911214 -0.24312814 1.9580001
0.10322623 -0.24750006 1.9580001
0.079909243 -0.23292695 1.9580001
0.086710036 -0.23292695 1.9580001
0.094870977 -0.23496719 1.9579999
0.10031161 -0.23802754 1.9580001
0.085576572 -0.22725964 1.9580001
0.09393587 -0.22570112 1.9580001
0.10031161 -0.22442597 1.9580001
0.093510821 -0.21847528 1.9580001
0.10144507 -0.21365805 1.9580001
0.10314527 -0.20515709 1.9580001
0.11113364 -0.41204935 1.9690001
0.097455658 -0.40350062 1.9690001
0.10514953 -0.40264574 1.9690001
0.1134133 -0.40407053 1.969
0.12275994 -0.40589428 1.9690001
0.094463602 -0.39495188 1.969
0.10429464 -0.39495188 1.9690001
0.11553015 -0.39446336 1.969
0.08719717 -0.38298362 1.9690001
0.094463602 -0.38426596 1.969
0.10380615 -0.38567036 1.969
0.11284339 -0.38811287 1.9690001
0.076938674 -0.37272513 1.9690001
0.082922801 -0.37443489 1.9690001
0.090616666 -0.37785441 1.9690001
0.15558711 -0.37443492 1.9690002
0.073519178 -0.36246663 1.9690001
0.15672694 -0.36531624 1.9690002
0.073519178 -0.35391793 1.9690002
0.075798847 -0.34593907 1.9690002
0.083777674 -0.34194967 1.969
0.094891034 -0.34109485 1.9690001
0.1025849 -0.3419497 1.9690001
0.14601251 -0.34160775 1.9690001
0.15501718 -0.34365943 1.969
0.085487425 -0.33511066 1.9690001
0.094036162 -0.33511066 1.969
0.10361075 -0.33476874 1.9690001
0.12139214 -0.33340093 1.9690001
0.13734978 -0.33454075 1.9690002
0.14532861 -0.33511066 1.969
0.1549032 -0.33476871 1.9690001
0.087197162 -0.32656193 1.9690002
0.094036169 -0.32656196 1.9690001
0.10386722 -0.32698935 1.969
0.12139214 -0.32998145 1.9690001
0.13620995 -0.32542208 1.969
0.14532863 -0.32656193 1.9690001
0.15558709 -0.32656193 1.9690001
0.08719717 -0.31801319 1.9690001
0.094036162 -0.31630343 1.9690001
0.10429465 -0.31630343 1.9690001
0.11455314 -0.31288394 1.9690001
0.13763474 -0.31715834 1.9690001
0.14532863 -0.31630343 1.9690001
0.15558711 -0.31630343 1.9690001
0.1644778 -0.31493565 1.9690001
0.087197162 -0.30604497 1.9690002
0.094036162 -0.30604494 1.9690001
0.10429466 -0.30604494 1.9690001
0.13848962 -0.30604497 1.9690002
0.14464471 -0.30809665 1.9690001
0.15558709 -0.30604497 1.9690001
0.16584559 -0.3077547 1.969
0.17268458 -0.30604497 1.9690001
0.087197162 -0.29578647 1.9690002
0.094036154 -0.29578647 1.9690001
0.10361075 -0.29783815 1.9690001
0.15607561 -0.29676345 1.969
0.1624261 -0.29236698 1.9690001
0.08634229 -0.28467309 1.9690001
0.094036162 -0.28552797 1.9690001
0.1590066 -0.28552797 1.9690002
0.16356593 -0.28666779 1.9690002
0.086057343 -0.2764093 1.9690002
0.094036162 -0.27526951 1.9690001
0.094036162 -0.26501098 1.9690001
0.10292685 -0.26432711 1.9690001
0.094036162 -0.25475252 1.9690001
0.076938674 -0.24449402 1.9690001
0.083777666 -0.24278426 1.969
0.093059167 -0.24498251 1.969
0.083777674 -0.23560333 1.9690001
0.0917565 -0.23537536 1.9690002
0.096600778 -0.21286368 1.9690001
0.097455658 -0.20687956 1.9690001
0.10087515 -0.20687956 1.9690001
0.10716971 -0.41205892 1.9800001
0.11519311 -0.41091272 1.9800001
0.087684304 -0.40059692 1.9800001
0.103158 -0.4074741 1.9800001
0.11863171 -0.4074741 1.9800001
0.086824656 -0.39286005 1.9800001
0.091122903 -0.39371973 1.9800001
0.082526401 -0.38512319 1.9800001
0.073929906 -0.37652671 1.9800001
0.082526401 -0.37996531 1.9800001
0.1598949 -0.37480742 1.9800001
0.070491299 -0.3679302 1.9800001
0.1598949 -0.3696495 1.9800001
0.070491299 -0.35417581 1.9800001
0.073929906 -0.3455793 1.9800001
0.077368505 -0.33526349 1.9800001
0.081666753 -0.33440384 1.9800001
0.082526408 -0.32494771 1.9800001
0.061894801 -0.3180705 1.9800001
0.083263241 -0.31463191 1.9800003
0.075305343 -0.30294067 1.9800001
0.082526408 -0.30431613 1.9800001
0.1650528 -0.30259681 1.9800001
0.1702107 -0.3043161 1.9800001
0.07650885 -0.29485995 1.9800001
0.082526408 -0.2940003 1.9800001
0.16562591 -0.2940003 1.9800001
0.17193002 -0.2940003 1.9800001
0.077368505 -0.28540382 1.9800001
0.082182541 -0.28368449 1.9800001
0.1598949 -0.2802459 1.9800001
0.1644797 -0.28253832 1.9800001
0.083386049 -0.27422836 1.9800001
0.085965008 -0.2664915 1.9800001
0.084675521 -0.2561757 1.9800003
0.077368505 -0.24929851 1.9800001
0.084245704 -0.24929851 1.9800001
0.084756285 -0.39956534 1.9920001
0.067459084 -0.3718898 1.9920001
0.067459084 -0.36843038 1.9920001
0.070918523 -0.3632412 1.9920001
0.067459084 -0.35286289 1.9920001
0.067459084 -0.34594402 1.9920001
0.072302297 -0.3435224 1.9920002
0.067459084 -0.33210623 1.9920001
0.073801391 -0.33383596 1.9920002
0.066305935 -0.3246108 1.9920001
0.074377961 -0.32518736 1.9920002
0.063999645 -0.31538561 1.9920001
0.075366378 -0.31604457 1.9920003
0.067459084 -0.30616045 1.9920001
0.072648242 -0.30789018 1.9920001
0.17297199 -0.302701 1.9920001
0.067459084 -0.29578212 1.9920001
0.072302297 -0.29509026 1.9920002
0.16778284 -0.29924157 1.9920001
0.17124228 -0.2923227 1.9920001
0.067459084 -0.28886324 1.9920001
0.073801391 -0.28540382 1.9920002
0.076972544 -0.27589035 1.9920001
0.081296839 -0.27156603 1.9920001
0.07553111 -0.26349401 1.9920002
0.081296839 -0.26637688 1.9920001
0.0778374 -0.25599855 1.9920001
0.081296839 -0.25772828 1.9920001
0.067831598 -0.38437906 2.003
0.064353056 -0.37220412 2.003
0.067831598 -0.36350778 2.003
0.062613785 -0.35307217 2.003
0.065512568 -0.34611508 2.003
0.067831598 -0.339158 2.003
0.07131014 -0.33220088 2.003
0.066092327 -0.32524383 2.003
0.07131014 -0.32176527 2.003
0.067831598 -0.31828672 2.003
0.07131014 -0.31828672 2.003
0.067831598 -0.30785111 2.003
0.17392716 -0.30089402 2.003
0.064353056 -0.29741547 2.003
0.066961966 -0.2835013 2.003
0.07131014 -0.281762 2.003
0.074788682 -0.27480495 2.003
0.074788682 -0.26958713 2.003
0.074788682 -0.25915149 2.003
0.068237975 -0.39018124 2.0150001
0.065905057 -0.38434896 2.0150001
0.071737364 -0.3831825 2.0150001
0.063338839 -0.37758347 2.0150001
0.063863747 -0.36656043 2.0150001
0.0629889 -0.35518742 2.0150001
0.064738594 -0.34468928 2.0150001
0.068237975 -0.27120221 2.0150001
0.071737364 -0.2747016 2.0150001
0.071737364 -0.26770285 2.0150001
0.065124132 -0.3925049 2.0270002
0.058083687 -0.38546446 2.0270002
0.061603911 -0.38722456 2.0270002
0.058083687 -0.3749038 2.0270002
0.058083687 -0.36786336 2.0270002
0.061603911 -0.36610323 2.0270002
0.061603911 -0.346742 2.0270002
0.06864436 -0.27809763 2.0270002
0.057247192 -0.39482859 2.039
0.06196861 -0.39482859 2.039
0.054886479 -0.38420537 2.039
0.054886479 -0.37358221 2.039
0.058427546 -0.36650008 2.039
0.06196861 -0.362959 2.039
0.055209503 -0.40249509 2.0510001
0.052834898 -0.39359033 2.0510001
0.0516476 -0.38468558 2.0510001
0.0516476 -0.37578082 2.0510001
0.056990452 -0.36687607 2.0510001
0.048367035 -0.40305865 2.0630002
0.05194978 -0.40305865 2.0630002
0.048367035 -0.39589319 2.0630002
0.05194978 -0.3994759 2.0630002
0.048367035 -0.38693631 2.0630002
0.048367035 -0.37439668 2.0630002
0.05194978 -0.37081394 2.0630002
0.055532522 -0.36723119 2.0630002
0.043263841 -0.40379584 2.0760002
0.044165172 -0.39568388 2.0760002
0.047470048 -0.38396657 2.0760002
0.05227714 -0.36954531 2.0760002
0.03807468 -0.40431684 2.0880001
0.04170084 -0.39525145 2.0880001
0.045327 -0.38437298 2.0880001
0.045327 -0.37893373 2.0880001
0.052579321 -0.36805525 2.0880001
0.038311735 -0.40318543 2.1010001
0.038311735 -0.39953667 2.1010001
0.041960474 -0.38859046 2.1010001
0.047433577 -0.37764427 2.1010001
0.03854879 -0.39833751 2.1140001
